# .PCD v0.7 - Point Cloud Data file format
VERSION 0.7
FIELDS x y z
SIZE 4 4 4
TYPE F F F
COUNT 1 1 1
WIDTH 1488
HEIGHT 1
VIEWPOINT 0 0 0 1 0 0 0
POINTS 1488
DATA ascii
1.0866172 3.8293827 -0.76690352
-8.0471163 45.490551 2.7224391
0.95082742 4.448534 -0.77078456
1.7568461 0.77603418 -0.073607258
0.75669909 5.3337073 -0.77135521
1.7568461 0.77603418 -0.073607258
0.44815648 6.7405868 -0.76985568
-8.0708752 45.618034 7.6045942
-0.16062748 9.5164509 -0.7785911
1.7568461 0.77603418 -0.073607258
-0.063013434 9.0726652 -0.44515708
1.7568461 0.77603418 -0.073607258
1.7568461 0.77603418 -0.073607258
1.7568461 0.77603418 -0.073607258
1.1925619 3.389781 -0.76538426
1.7568461 0.77603418 -0.073607258
1.0956111 3.8393316 -0.76864499
-7.8067555 45.134235 2.6979167
0.96529049 4.4436297 -0.7693373
1.7568461 0.77603418 -0.073607258
0.76675236 5.364233 -0.77551013
1.7568461 0.77603418 -0.073607258
0.4681257 6.7489967 -0.77032709
1.7568461 0.77603418 -0.073607258
-0.12550259 9.5016451 -0.77688986
-7.8565221 45.391899 9.2078657
1.7568461 0.77603418 -0.073607258
1.7568461 0.77603418 -0.073607258
-2.419261 20.140068 -0.24816653
1.7568461 0.77603418 -0.073607258
1.1992567 3.4030929 -0.76839811
1.7568461 0.77603418 -0.073607258
1.103045 3.8568945 -0.7721191
-7.6517797 45.16737 2.6977761
0.97970998 4.4386692 -0.76789021
1.7568461 0.77603418 -0.073607258
0.78850007 5.3405657 -0.77138358
1.7568461 0.77603418 -0.073607258
0.48813748 6.7573404 -0.7707991
1.7568461 0.77603418 -0.073607258
-0.097122908 9.5179081 -0.77770287
-7.6297956 45.091652 9.1383743
0.032230973 8.9092436 -0.4373413
1.7568461 0.77603418 -0.073607258
-2.3557987 20.174089 -0.24840415
1.7568461 0.77603418 -0.073607258
1.2107823 3.3936434 -0.76540107
1.7568461 0.77603418 -0.073607258
1.1161746 3.847683 -0.76953077
1.7568461 0.77603418 -0.073607258
0.98444974 4.4798541 -0.77519524
1.7568461 0.77603418 -0.073607258
0.80118847 5.3594017 -0.77376479
1.7568461 0.77603418 -0.073607258
0.50535297 6.7792335 -0.77285796
-7.4392848 44.94622 7.4722018
-0.07434845 9.5614052 -0.78071636
-7.4028964 44.778854 9.0664892
0.064696074 8.895649 -0.43649366
1.7568461 0.77603418 -0.073607258
1.7568461 0.77603418 -0.073607258
1.7568461 0.77603418 -0.073607258
1.2175695 3.4069085 -0.76841557
1.7568461 0.77603418 -0.073607258
1.128448 3.8422432 -0.76780885
1.7568461 0.77603418 -0.073607258
0.99973083 4.470963 -0.77301985
1.7568461 0.77603418 -0.073607258
0.81915724 5.3530145 -0.77230132
1.7568461 0.77603418 -0.073607258
0.52709186 6.7796655 -0.772425
-7.2057738 44.59161 7.4060712
-0.048092484 9.5892229 -0.7824741
-7.2018619 44.580227 9.0185146
1.7568461 0.77603418 -0.073607258
1.7568461 0.77603418 -0.073607258
1.7568461 0.77603418 -0.073607258
1.7568461 0.77603418 -0.073607258
1.2267358 3.4087682 -0.76842469
1.7568461 0.77603418 -0.073607258
1.1360517 3.8597245 -0.7712841
1.7568461 0.77603418 -0.073607258
1.0161047 4.4562259 -0.76975065
-6.9965568 44.328045 4.1994348
0.83043635 5.3795223 -0.77586693
1.7568461 0.77603418 -0.073607258
0.54607534 6.7936549 -0.77357888
1.7568461 0.77603418 -0.073607258
-0.016159654 9.5895977 -0.7820335
-6.9907451 44.32309 8.95858
1.7568461 0.77603418 -0.073607258
1.7568461 0.77603418 -0.073607258
1.7568461 0.77603418 -0.073607258
1.7568461 0.77603418 -0.073607258
1.2359087 3.4105964 -0.76843411
1.7568461 0.77603418 -0.073607258
1.1467993 3.861866 -0.77129513
1.7568461 0.77603418 -0.073607258
1.0281725 4.4626412 -0.77049315
1.7568461 0.77603418 -0.073607258
0.84265584 5.4021263 -0.77884156
1.7568461 0.77603418 -0.073607258
0.56475651 6.8095345 -0.77495998
1.7568461 0.77603418 -0.073607258
0.019231558 9.5722551 -0.78017962
-6.7815404 44.065014 8.8986425
1.7568461 0.77603418 -0.073607258
1.7568461 0.77603418 -0.073607258
0.16486847 8.8380365 -0.14615734
1.7568461 0.77603418 -0.073607258
1.2458258 3.4085903 -0.76744187
1.7568461 0.77603418 -0.073607258
1.158298 3.8601367 -0.77044034
1.7568461 0.77603418 -0.073607258
1.0391521 4.4748082 -0.77233011
1.7568461 0.77603418 -0.073607258
0.86330891 5.3819814 -0.77530873
1.7568461 0.77603418 -0.073607258
0.58353353 6.825357 -0.77634203
-6.5958095 43.908615 7.2736444
0.13115335 9.1593857 -0.7465865
-6.5675387 43.771381 8.8315306
1.7568461 0.77603418 -0.073607258
1.7568461 0.77603418 -0.073607258
0.22118056 8.6982536 -0.14487997
1.7568461 0.77603418 -0.073607258
1.2520992 3.4255679 -0.77145958
1.7568461 0.77603418 -0.073607258
1.1705078 3.8545282 -0.76871961
1.7568461 0.77603418 -0.073607258
1.0468972 4.5043287 -0.77744973
1.7568461 0.77603418 -0.073607258
0.88011098 5.3811789 -0.77473456
1.7568461 0.77603418 -0.073607258
0.60612154 6.8216014 -0.7754584
-6.3720775 43.553864 7.2081642
0.16935134 9.1179962 -0.74284714
-6.3769183 43.588455 8.787529
1.7568461 0.77603418 -0.073607258
1.7568461 0.77603418 -0.073607258
0.26154673 8.6367655 -0.14430919
1.7568461 0.77603418 -0.073607258
1.2634645 3.4158876 -0.76846403
0.22043467 9.0110893 0.1448102
1.1798022 3.8642271 -0.770464
1.7568461 0.77603418 -0.073607258
1.0620613 4.4951792 -0.77527606
1.7568461 0.77603418 -0.073607258
0.89108616 5.4114256 -0.77889419
1.7568461 0.77603418 -0.073607258
0.62866926 6.8177609 -0.77457541
1.7568461 0.77603418 -0.073607258
0.1955322 9.1391592 -0.74413675
-6.1840858 43.38546 8.7395411
1.7568461 0.77603418 -0.073607258
1.7568461 0.77603418 -0.073607258
0.3073355 8.5436373 -0.14345589
1.7568461 0.77603418 -0.073607258
1.2729009 3.4136939 -0.76747209
0.25424004 8.9807425 0.14384073
1.1879132 3.8776405 -0.77307439
-11.731976 74.445915 4.4983759
1.0757977 4.4897199 -0.77383137
1.7568461 0.77603418 -0.073607258
0.90929651 5.3987007 -0.77654499
1.7568461 0.77603418 -0.073607258
0.64761615 6.8273258 -0.77527827
1.7568461 0.77603418 -0.073607258
0.22253597 9.1482058 -0.74448282
-5.9825535 43.083897 8.6716328
1.7568461 0.77603418 -0.073607258
1.7568461 0.77603418 -0.073607258
0.34102702 8.5051212 -0.14309633
1.7568461 0.77603418 -0.073607258
1.2816308 3.4152782 -0.76748234
0.28853357 8.9463263 0.14276654
1.1967983 3.8871906 -0.7748189
1.7568461 0.77603418 -0.073607258
1.0874001 4.4958224 -0.77457523
1.7568461 0.77603418 -0.073607258
0.92250854 5.4131598 -0.77833813
1.7568461 0.77603418 -0.073607258
0.66696513 6.8348761 -0.77575511
-5.7986016 42.857525 7.0757241
0.25028765 9.1532421 -0.74451536
-5.8108177 42.935787 8.635602
1.7568461 0.77603418 -0.073607258
1.7568461 0.77603418 -0.073607258
1.7568461 0.77603418 -0.073607258
1.7568461 0.77603418 -0.073607258
1.2896924 3.4206467 -0.76849484
0.33854973 8.8211994 0.13929498
1.2057405 3.8967154 -0.7765637
1.7568461 0.77603418 -0.073607258
1.0983515 4.5057616 -0.77604896
-5.6071939 42.568447 4.0072103
0.93993354 5.4042077 -0.77658135
1.7568461 0.77603418 -0.073607258
0.68738842 6.836494 -0.77555257
1.7568461 0.77603418 -0.073607258
0.27736342 9.1621132 -0.74486315
-5.6190743 42.667332 8.5748625
1.7568461 0.77603418 -0.073607258
1.7568461 0.77603418 -0.073607258
1.7568461 0.77603418 -0.073607258
1.7568461 0.77603418 -0.073607258
1.2991693 3.4262295 -0.76950932
0.39662051 8.6689663 0.13508922
1.2243481 3.8603199 -0.76791584
1.7568461 0.77603418 -0.073607258
1.1119857 4.5121307 -0.77679592
1.7568461 0.77603418 -0.073607258
0.95566911 5.4189982 -0.77837855
1.7568461 0.77603418 -0.073607258
0.7076031 6.8581724 -0.77762127
-5.4299331 42.521839 7.009388
0.3075186 9.1795149 -0.74584585
-5.405376 42.390251 8.5117044
1.7568461 0.77603418 -0.073607258
1.7568461 0.77603418 -0.073607258
0.44717288 8.3736792 -0.14188324
1.7568461 0.77603418 -0.073607258
1.3051738 3.4468958 -0.77453119
0.43216944 8.6263533 0.13380429
1.2337952 3.8698542 -0.76966202
1.7568461 0.77603418 -0.073607258
1.1266489 4.5046577 -0.77498877
-5.2341905 42.228764 3.9685428
0.97186011 5.4217601 -0.77839899
1.7568461 0.77603418 -0.073607258
0.73179817 6.8441572 -0.77560794
-5.2183962 42.157703 6.9432368
0.33484888 9.196311 -0.74682587
-5.2305202 42.241146 8.4756575
1.7568461 0.77603418 -0.073607258
1.7568461 0.77603418 -0.073607258
0.47902465 8.3466501 -0.14163324
1.7568461 0.77603418 -0.073607258
1.3182735 3.4255271 -0.76853091
0.46870685 8.5756989 0.13231066
1.2426646 3.8832123 -0.77227485
-5.0264544 41.860355 2.4674761
1.1406102 4.501008 -0.7739113
1.7568461 0.77603418 -0.073607258
0.98225123 5.4595919 -0.783746
-5.0357752 41.940121 5.4131818
0.75004733 6.8653364 -0.77767551
-5.0255475 41.889915 6.8935766
0.35837626 9.2366247 -0.74969339
-5.0408492 41.994629 8.4196844
1.7568461 0.77603418 -0.073607258
1.7568461 0.77603418 -0.073607258
0.51067102 8.3194933 -0.14138377
1.7568461 0.77603418 -0.073607258
1.3281235 3.4232128 -0.76754105
0.49594593 8.5801497 0.1322746
1.2503726 3.9042559 -0.77662075
-4.8428254 41.635498 2.4519382
1.155167 4.4934235 -0.77210474
1.7568461 0.77603418 -0.073607258
0.99858361 5.4622602 -0.78376764
1.7568461 0.77603418 -0.073607258
0.77033645 6.874691 -0.77838367
-4.8660817 41.816032 6.8768964
0.38726115 9.2453842 -0.75004691
-4.8548594 41.758911 8.3661013
1.7568461 0.77603418 -0.073607258
1.7568461 0.77603418 -0.073607258
0.5363692 8.3277454 -0.14145409
1.7568461 0.77603418 -0.073607258
1.3349229 3.4399855 -0.77156186
0.53256011 8.52526 0.13067594
1.2618854 3.9021416 -0.77576911
-4.6689453 41.461121 2.4395645
1.1675112 4.4993796 -0.77285182
-4.6751957 41.513226 3.891408
1.0167801 5.4531498 -0.78201419
1.7568461 0.77603418 -0.073607258
0.7891258 6.8937926 -0.78022599
1.7568461 0.77603418 -0.073607258
0.40871549 9.3013115 -0.75417435
-4.6785398 41.572731 8.322875
1.7568461 0.77603418 -0.073607258
1.7568461 0.77603418 -0.073607258
0.56710458 8.3043032 -0.14124128
1.7568461 0.77603418 -0.073607258
1.3433789 3.4452264 -0.77257651
0.57054603 8.4542999 0.12866157
1.2737024 3.8960834 -0.77405113
-4.4938097 41.246029 2.4247577
1.1756539 4.5305066 -0.77834082
-4.5060301 41.338161 3.872077
1.0326817 5.4556346 -0.78203619
1.7568461 0.77603418 -0.073607258
0.80993164 6.8970442 -0.78025472
-4.5116153 41.400745 6.7986765
0.36245191 9.7925291 -0.79304785
-4.495204 41.307796 8.2637138
1.7568461 0.77603418 -0.073607258
1.7568461 0.77603418 -0.073607258
0.60617077 8.221344 -0.1404954
1.7568461 0.77603418 -0.073607258
1.3536052 3.4389544 -0.77058494
0.59131539 8.4938793 0.12956142
1.2843038 3.8977036 -0.77406603
-4.311873 40.974949 2.4065394
1.1910629 4.5149574 -0.77507579
-4.3381305 41.162422 3.8527441
1.0521419 5.434597 -0.77850753
-4.3190641 41.049686 5.2820339
0.82985741 6.9061198 -0.78096431
-4.3248858 41.102016 6.7443962
0.39014482 9.8169308 -0.79466343
-4.3324513 41.166122 8.230051
1.7568461 0.77603418 -0.073607258
1.7568461 0.77603418 -0.073607258
0.63330591 8.2133512 -0.14042456
1.7568461 0.77603418 -0.073607258
1.3628825 3.4403389 -0.77059835
0.62468374 8.4543877 0.12837794
1.2934699 3.9109161 -0.77668089
-4.1475797 40.833965 2.3963516
1.2069713 4.4974499 -0.7714467
1.7568461 0.77603418 -0.073607258
1.0646291 5.46246 -0.78237814
-4.1493998 40.874523 5.2557578
0.84949803 6.9211054 -0.78235543
-4.144814 40.857643 6.6993437
0.41674078 9.8551702 -0.79738194
-4.155231 40.942886 8.1796455
1.7568461 0.77603418 -0.073607258
1.7568461 0.77603418 -0.073607258
0.67036021 8.1420441 -0.13978647
1.7568461 0.77603418 -0.073607258
1.37493 3.4225278 -0.76560116
0.67029047 8.3276844 0.12490516
1.3049521 3.9086432 -0.77583051
-0.94848502 19.585157 1.0854708
1.2191021 4.5051794 -0.77256018
-3.9991546 40.809952 3.8140619
1.0798421 5.4726715 -0.78358591
1.7568461 0.77603418 -0.073607258
0.87291646 6.9104619 -0.78079975
-3.9867234 40.753101 6.6780329
0.44870269 9.8578129 -0.79727119
-3.9785371 40.711159 8.1276464
1.7568461 0.77603418 -0.073607258
1.7568461 0.77603418 -0.073607258
0.69949508 8.122036 -0.13961081
1.7568461 0.77603418 -0.073607258
1.3838413 3.4277055 -0.76661754
0.70009828 8.3117266 0.12434455
1.3150545 3.9179676 -0.7775802
-0.86506379 19.480066 1.0783082
1.2294165 4.5284929 -0.77659309
-3.8010693 40.439949 3.7759593
1.0977299 5.4672222 -0.78242725
-3.8105025 40.522614 5.2031941
0.89346701 6.9234171 -0.78196633
-3.7985959 40.453072 6.6237378
0.48173678 9.8584795 -0.79700541
-3.8027754 40.498577 8.0796242
0.74245226 8.0041933 -0.39354378
1.7568461 0.77603418 -0.073607258
0.72578263 8.1257715 -0.13965023
1.7568461 0.77603418 -0.073607258
1.3917329 3.4405258 -0.7696386
0.72977734 8.2956514 0.1237833
1.3310469 3.884701 -0.76979929
-0.80457699 19.536808 1.0811276
1.2414904 4.5400906 -0.77843761
1.7568461 0.77603418 -0.073607258
1.1177154 5.4460273 -0.77890128
1.7568461 0.77603418 -0.073607258
0.92002386 6.8929911 -0.77814513
-3.6468143 40.40239 6.6116495
0.50422287 9.9360666 -0.80287403
-3.633913 40.324097 8.0395679
1.7568461 0.77603418 -0.073607258
1.7568461 0.77603418 -0.073607258
0.75208259 8.1294127 -0.13969043
1.7568461 0.77603418 -0.073607258
1.3995253 3.4493926 -0.77165681
0.75736314 8.2791996 0.12322453
1.3382359 3.9093134 -0.77501416
-3.4694004 40.026073 2.3409674
1.2555175 4.5300779 -0.77626812
-3.4747524 40.08271 3.7372715
1.1289978 5.4794841 -0.78366101
-3.4842901 40.170956 5.1511536
0.936351 6.9252706 -0.78157818
-3.4704733 40.083824 6.5547299
1.7568461 0.77603418 -0.073607258
-3.4766932 40.147541 7.9995251
1.7568461 0.77603418 -0.073607258
1.7568461 0.77603418 -0.073607258
0.78175402 8.0930557 -0.13937208
1.7568461 0.77603418 -0.073607258
1.408373 3.4505565 -0.77167082
0.7848292 8.2626476 0.12266526
1.3481047 3.9145503 -0.77589703
-3.3134608 39.845238 2.3285887
1.2692187 4.5219636 -0.77446359
1.7568461 0.77603418 -0.073607258
1.1445787 5.4815335 -0.78368574
1.7568461 0.77603418 -0.073607258
0.95723969 6.9240108 -0.78115696
-3.317606 39.928844 6.5255079
1.7568461 0.77603418 -0.073607258
-3.3116403 39.900414 7.9451399
1.7568461 0.77603418 -0.073607258
1.7568461 0.77603418 -0.073607258
0.80808169 8.0803823 -0.13926795
1.7568461 0.77603418 -0.073607258
1.4174371 3.4556215 -0.77268857
0.81413037 8.2462435 0.12210231
1.3568633 3.9353564 -0.78024775
-3.1360984 39.566059 2.310106
1.2808752 4.5373335 -0.77703911
-3.1536326 39.72287 3.6985755
1.1589153 5.5033107 -0.78667289
-3.1627002 39.812767 5.0985842
0.97922021 6.926825 -0.78119248
-3.1432734 39.676727 6.4797802
1.7568461 0.77603418 -0.073607258
-3.154254 39.782253 7.917028
0.85694116 7.9005227 -0.38853067
1.7568461 0.77603418 -0.073607258
0.83973068 8.0400782 -0.13891768
1.7568461 0.77603418 -0.073607258
1.4279512 3.4491248 -0.77069968
0.84719259 8.1979733 0.12070747
1.3676715 3.9406364 -0.78113288
-2.9850788 39.484268 2.3037927
1.2950342 4.5331507 -0.7759667
1.7568461 0.77603418 -0.073607258
1.1791875 5.4779282 -0.78255653
-2.9809365 39.48769 5.0530005
0.99685121 6.9650621 -0.78531104
-2.9890208 39.57267 6.4591093
1.7568461 0.77603418 -0.073607258
-2.9825578 39.53896 7.86342
0.88850999 7.8541141 -0.38638169
1.7568461 0.77603418 -0.073607258
0.86961842 8.0115499 -0.13867483
1.7568461 0.77603418 -0.073607258
1.436111 3.4579127 -0.77271956
0.8762455 8.1692629 0.11983406
1.3835218 3.8992844 -0.77161872
0.72438264 9.4485826 0.45877862
1.3066373 4.544457 -0.77781242
-2.8343611 39.360897 3.6598675
1.1918895 5.5073566 -0.78672761
-2.8312211 39.353989 5.03297
1.0207241 6.9439297 -0.78262454
-2.8246427 39.318336 6.4133906
1.7568461 0.77603418 -0.073607258
-2.8272643 39.360313 7.8233652
0.91519666 7.8352013 -0.38545787
1.7568461 0.77603418 -0.073607258
0.89045924 8.0463018 -0.13900185
1.7568461 0.77603418 -0.073607258
1.4447737 3.4628286 -0.77373737
0.91106451 8.0888033 0.11761001
1.3905312 3.9315624 -0.77856946
0.76492226 9.3568611 0.45288783
1.3214843 4.5283809 -0.77455032
1.7568461 0.77603418 -0.073607258
1.2088859 5.5013862 -0.78557092
-2.6656408 39.073952 4.9936514
1.0444446 6.9227052 -0.77993834
-2.6792402 39.212265 6.3927269
0.69161761 9.9717636 -0.80412596
-2.6714449 39.165482 7.7801228
0.93944651 7.8360367 -0.38541114
1.7568461 0.77603418 -0.073607258
0.92210209 7.9896078 -0.13850777
1.7568461 0.77603418 -0.073607258
1.4541335 3.4638951 -0.77375358
0.93682313 8.0897255 0.11751387
1.4010907 3.9366958 -0.77945507
0.80778897 9.2452116 0.44577938
1.3339051 4.5357337 -0.77566767
-2.5237303 38.996002 3.6211576
1.2266884 5.4914699 -0.78382313
-2.5207586 38.990665 4.9803882
1.0632207 6.9488444 -0.78269756
-2.5145988 38.957039 6.3470001
0.72637105 9.951643 -0.80229324
-2.5171599 39.001579 7.7432451
0.96363991 7.8428164 -0.38562912
1.7568461 0.77603418 -0.073607258
0.94906801 7.9765768 -0.13840829
1.7568461 0.77603418 -0.073607258
1.4643372 3.4572296 -0.77176529
0.96193117 8.0965204 0.11757272
1.4112585 3.9456756 -0.78120774
0.83392555 9.2802334 0.44767374
1.348928 4.5195866 -0.77240652
1.7568461 0.77603418 -0.073607258
1.2439873 5.4854202 -0.78266788
-2.3551402 38.709698 4.9410615
1.0847514 6.9512215 -0.78273547
-2.3675156 38.846256 6.3256669
1.7568461 0.77603418 -0.073607258
-2.3581619 38.782513 7.6952143
0.98700708 7.8574567 -0.38619867
1.7568461 0.77603418 -0.073607258
0.97593325 7.9634471 -0.13830936
1.7568461 0.77603418 -0.073607258
1.4730985 3.4659545 -0.77378726
0.9860453 8.1192036 0.11804477
1.4246268 3.9274676 -0.77689475
0.89269865 9.0134706 0.43107623
1.3594187 4.5483937 -0.77753937
-2.211741 38.629375 3.5824301
1.261647 5.4793491 -0.78151363
-2.208919 38.62561 4.9277883
1.1051638 6.969389 -0.78458977
-2.2031565 38.594013 6.2805915
1.0009766 7.9639211 -0.6440897
-2.1998987 38.586544 7.6519551
1.0000166 7.9774027 -0.3914181
1.7568461 0.77603418 -0.073607258
1.0024865 7.9582376 -0.13828376
1.7568461 0.77603418 -0.073607258
1.4823111 3.4707983 -0.77480716
1.0054734 8.1895475 0.11976097
1.4370698 3.916975 -0.77431518
1.7568461 0.77603418 -0.073607258
1.3701108 4.5771737 -0.782673
1.7568461 0.77603418 -0.073607258
1.2736547 5.5283117 -0.78865027
-2.0465841 38.375237 4.8926229
1.126502 6.9795823 -0.78553766
-2.0537496 38.470615 6.2572713
1.0266809 7.9665742 -0.64413649
-2.047029 38.428928 7.6166601
1.0269874 7.9681354 -0.39093873
1.7568461 0.77603418 -0.073607258
1.0306072 7.9370136 -0.13811547
1.7568461 0.77603418 -0.073607258
1.4891877 3.4948328 -0.78083879
1.0385069 8.1124706 0.11763944
1.4458299 3.9374695 -0.77866846
0.95025456 9.0193119 0.43097067
1.3837988 4.5706329 -0.78123713
-1.9084324 38.259953 3.5437031
1.2898107 5.5299225 -0.7886802
1.7568461 0.77603418 -0.073607258
1.1487631 6.9698191 -0.78421539
-1.9386836 38.620853 6.2801065
1.0530874 7.9491692 -0.64260775
-1.8999921 38.250557 7.5773935
1.0530193 7.9546652 -0.39028221
1.7568461 0.77603418 -0.073607258
1.0553706 7.935462 -0.13812464
1.7568461 0.77603418 -0.073607258
1.5009861 3.4687371 -0.77383882
1.0659289 8.0889988 0.11691839
1.4562019 3.9423909 -0.77955532
1.7568461 0.77603418 -0.073607258
1.3970666 4.5679588 -0.78053135
1.7568461 0.77603418 -0.073607258
1.3055987 5.5354161 -0.78930271
-1.7873193 38.368763 4.8879766
1.1702008 6.9678893 -0.78380114
1.7568461 0.77603418 -0.073607258
1.7568461 0.77603418 -0.073607258
-1.7564222 38.095043 7.5429044
1.0695407 8.0405636 -0.39401293
1.7568461 0.77603418 -0.073607258
1.0808675 7.9258614 -0.13806275
1.7568461 0.77603418 -0.073607258
1.5080129 3.4927227 -0.77987128
1.0920953 8.0773716 0.11650801
1.465536 3.9589443 -0.78304285
1.7568461 0.77603418 -0.073607258
1.4099538 4.5691552 -0.7805559
-1.6169585 37.887562 3.5049829
1.3221383 5.5329781 -0.78874135
-1.6233431 37.98568 4.8356228
1.1905336 6.9777598 -0.78474879
1.7568461 0.77603418 -0.073607258
1.0910251 8.0729151 -0.65214562
-1.612538 37.92337 7.5052266
1.7568461 0.77603418 -0.073607258
1.7568461 0.77603418 -0.073607258
1.1028433 7.9540114 -0.13834262
1.7568461 0.77603418 -0.073607258
1.5204284 3.4627295 -0.77186978
1.1185758 8.0757208 0.11635377
1.4762206 3.9677391 -0.78479838
1.7568461 0.77603418 -0.073607258
1.4231617 4.5742831 -0.78131217
1.7568461 0.77603418 -0.073607258
1.3425984 5.4950886 -0.78285158
-1.4555868 37.602489 4.7832575
1.2127047 6.9797392 -0.78479171
1.7568461 0.77603418 -0.073607258
1.1171184 8.0752449 -0.65219611
-1.4593247 37.704853 7.4579792
1.1202521 8.0451775 -0.39411035
1.7568461 0.77603418 -0.073607258
1.1292236 7.9483356 -0.13832045
1.7568461 0.77603418 -0.073607258
1.5300217 3.4635515 -0.77188867
1.1442003 8.0839367 0.1164579
1.4899173 3.9414783 -0.77875322
1.7568461 0.77603418 -0.073607258
1.4360716 4.5832839 -0.78279883
-1.3179032 37.514042 3.466233
1.3571408 5.5241275 -0.78703076
-1.3154026 37.514992 4.7699728
1.2352153 6.9776797 -0.78438157
1.7568461 0.77603418 -0.073607258
1.7568461 0.77603418 -0.073607258
-1.3142399 37.56385 7.4266586
1.7568461 0.77603418 -0.073607258
1.7568461 0.77603418 -0.073607258
1.1540504 7.9604993 -0.1384608
1.7568461 0.77603418 -0.073607258
1.5377465 3.487498 -0.77792335
1.1681179 8.1139841 0.11713094
1.5005951 3.9501905 -0.78050941
1.7568461 0.77603418 -0.073607258
1.4496742 4.5844007 -0.78282601
1.7568461 0.77603418 -0.073607258
1.3744276 5.5215774 -0.78647226
-1.1758877 37.426964 4.7566848
1.25611 6.9953442 -0.78624135
-1.175969 37.460976 6.0744958
1.7568461 0.77603418 -0.073607258
-1.1664633 37.375397 7.3857803
1.1703428 8.0734406 -0.3952668
1.7568461 0.77603418 -0.073607258
1.1775157 7.9905181 -0.13876414
1.7568461 0.77603418 -0.073607258
1.5484499 3.4689176 -0.77292889
1.1915686 8.1358824 0.11759829
1.5092723 3.9782913 -0.78659928
1.7568461 0.77603418 -0.073607258
1.4635258 4.5736537 -0.78066194
-1.0349804 37.193253 3.4328432
1.3884301 5.5504537 -0.79065144
-1.0358542 37.239059 4.7303829
1.2772592 6.9970059 -0.78628415
-1.0280534 37.171829 6.0241537
1.7568461 0.77603418 -0.073607258
-1.0297252 37.228859 7.3536735
1.7568461 0.77603418 -0.073607258
1.7568461 0.77603418 -0.073607258
1.201304 8.0024176 -0.13890395
1.7568461 0.77603418 -0.073607258
1.558453 3.4580195 -0.76993972
1.2169176 8.1337776 0.11744332
1.5213029 3.9635315 -0.78315401
1.7568461 0.77603418 -0.073607258
1.4761424 4.5785456 -0.78141862
-0.90685594 37.146976 3.4272375
1.4058244 5.535893 -0.78831518
-0.89714086 37.050625 4.7040806
1.2981215 7.0025597 -0.78678149
-0.89795959 37.098522 6.0100594
1.7568461 0.77603418 -0.073607258
-0.89116848 37.042725 7.3136015
1.7568461 0.77603418 -0.073607258
1.7568461 0.77603418 -0.073607258
1.2256058 8.008255 -0.13899046
1.7568461 0.77603418 -0.073607258
1.5661992 3.4779863 -0.77497202
1.2414086 8.1435509 0.11759826
1.5329559 3.9526222 -0.78057581
1.7568461 0.77603418 -0.073607258
1.4872698 4.6049724 -0.78619111
1.7568461 0.77603418 -0.073607258
1.4220054 5.5370536 -0.78834885
-0.75974333 36.861675 4.6777768
1.3204088 6.9882202 -0.78500956
-0.75688493 36.859444 5.9682827
1.1029005 10.094013 -0.81153649
-0.7558192 36.883442 7.2791028
1.7568461 0.77603418 -0.073607258
1.7568461 0.77603418 -0.073607258
1.249382 8.0219898 -0.13914995
1.7568461 0.77603418 -0.073607258
1.5751168 3.4824767 -0.775994
1.2651629 8.1652136 0.11806283
1.5445319 3.9416714 -0.77799773
1.7568461 0.77603418 -0.073607258
1.4996247 4.6156716 -0.78804392
-0.62817562 36.699493 3.382004
1.4387183 5.5302649 -0.78719813
-0.6273402 36.727612 4.6587653
1.3402078 7.0094895 -0.78732425
-0.62607777 36.749741 5.9482541
1.2554591 8.285862 -0.66825718
-0.62055075 36.708012 7.2414179
1.7568461 0.77603418 -0.073607258
1.7568461 0.77603418 -0.073607258
1.2716501 8.0595932 -0.13952704
1.7568461 0.77603418 -0.073607258
1.5840524 3.4908173 -0.77801967
1.2900834 8.1808548 0.1183698
1.5540763 3.9657688 -0.78322315
1.7568461 0.77603418 -0.073607258
1.5141295 4.5988774 -0.78478676
-0.50466907 36.739418 3.3847928
1.4547937 5.5392356 -0.78841847
-0.49399197 36.61306 4.6423497
1.361948 7.0108995 -0.78737068
-0.49636853 36.694897 5.9374418
1.288959 8.1721516 -0.65917605
-0.49098098 36.653564 7.2284098
1.2717538 8.4532909 -0.41186857
1.7568461 0.77603418 -0.073607258
1.2965709 8.0692263 -0.13965368
1.7568461 0.77603418 -0.073607258
1.594439 3.4759357 -0.77402914
1.3147497 8.2023983 0.11883096
1.5649563 3.9703481 -0.78411418
1.7568461 0.77603418 -0.073607258
1.527336 4.6016574 -0.78518075
-0.38138974 36.786877 3.3883419
1.4702177 5.5599985 -0.79141688
-0.37579834 36.73951 4.6577034
1.3839293 7.0082664 -0.78696376
-0.37454045 36.76561 5.9477129
1.7568461 0.77603418 -0.073607258
-0.36923277 36.723869 7.2408772
1.7568461 0.77603418 -0.073607258
1.7568461 0.77603418 -0.073607258
1.321552 8.0787735 -0.13978119
1.7568461 0.77603418 -0.073607258
1.6036416 3.484225 -0.77605581
1.3408816 8.2119188 0.11897942
1.5757046 3.9827037 -0.78674036
1.7568461 0.77603418 -0.073607258
1.5410038 4.6024475 -0.78521073
-0.2524339 36.794331 3.3880587
1.4879816 5.5491376 -0.78967685
-0.25381172 36.869713 4.6735659
1.4046457 7.0373292 -0.79019141
-0.24865305 36.828213 5.9566541
1.7568461 0.77603418 -0.073607258
-0.247347 36.85656 7.2660718
1.7568461 0.77603418 -0.073607258
1.7568461 0.77603418 -0.073607258
1.3467858 8.0962582 -0.13998342
1.7568461 0.77603418 -0.073607258
1.6131063 3.4886162 -0.77708018
1.3673896 8.2153578 0.11897186
1.5879828 3.9677269 -0.7832976
1.7568461 0.77603418 -0.073607258
1.5546747 4.6031885 -0.78524119
-0.13362145 36.996159 3.406492
1.5048313 5.5540128 -0.7903074
-0.12720597 36.928204 4.680048
1.4249387 7.0782285 -0.79478258
-0.12439287 36.929779 5.9721794
1.7568461 0.77603418 -0.073607258
-0.12148261 36.930119 7.2793193
1.7568461 0.77603418 -0.073607258
1.7568461 0.77603418 -0.073607258
1.3713015 8.129632 -0.14033163
1.7568461 0.77603418 -0.073607258
1.6219356 3.4968183 -0.77910668
1.3914447 8.2426033 0.11958649
1.5990189 3.9643767 -0.78245491
1.7568461 0.77603418 -0.073607258
1.5676806 4.603848 -0.78527051
-0.015094638 37.101841 3.4157648
1.5204887 5.5666895 -0.79212183
-0.0086538792 37.029522 4.6922688
1.4463685 7.0793152 -0.79483092
-0.0082592964 37.081833 5.9962788
1.7568461 0.77603418 -0.073607258
-0.002594471 37.026421 7.2973523
1.7568461 0.77603418 -0.073607258
1.7568461 0.77603418 -0.073607258
1.3933911 8.1908264 -0.14093217
1.7568461 0.77603418 -0.073607258
1.6308187 3.5049913 -0.78113347
1.4161355 8.2597828 0.11994172
1.6096708 3.9687896 -0.78334677
1.7568461 0.77603418 -0.073607258
1.5806885 4.6044631 -0.7853002
0.10412848 37.20713 3.4250319
1.536592 5.5714107 -0.79275149
0.10966814 37.150257 4.7070875
1.4692574 7.0485687 -0.79124618
0.1129837 37.142864 6.0052195
1.7568461 0.77603418 -0.073607258
0.11657619 37.130169 7.3169727
1.7568461 0.77603418 -0.073607258
1.7568461 0.77603418 -0.073607258
1.4182606 8.2000113 -0.14106238
1.7568461 0.77603418 -0.073607258
1.6403245 3.505408 -0.78115541
1.4410059 8.2908916 0.1206559
1.6200477 3.9868329 -0.78727466
1.7568461 0.77603418 -0.073607258
1.5943663 4.5971894 -0.78387028
0.22907281 37.268406 3.4300852
1.5539818 5.556335 -0.79041958
0.23263884 37.25489 4.7198105
1.4921422 7.0257049 -0.78857142
0.23682129 37.227276 6.0181017
1.7568461 0.77603418 -0.073607258
0.23880303 37.253235 7.3405609
1.7568461 0.77603418 -0.073607258
1.7568461 0.77603418 -0.073607258
1.4431647 8.2251253 -0.14134029
1.7568461 0.77603418 -0.073607258
1.651197 3.4709682 -0.77215129
1.4670902 8.2959461 0.12069774
1.6315404 3.9794807 -0.78556651
1.7568461 0.77603418 -0.073607258
1.6074544 4.6036215 -0.78499699
0.35106218 37.416786 3.4435363
1.5700324 5.5728183 -0.79282928
0.35632288 37.359116 4.7325292
1.5128576 7.0543818 -0.79180223
1.7568461 0.77603418 -0.073607258
1.3925724 10.169634 -0.81691545
0.36231887 37.364151 7.3617558
1.7568461 0.77603418 -0.073607258
1.7568461 0.77603418 -0.073607258
1.4687804 8.236167 -0.14149204
1.7568461 0.77603418 -0.073607258
1.6604457 3.4751842 -0.77317649
1.4930658 8.3049059 0.12084199
1.6424937 3.9857452 -0.78689378
1.487605 8.479104 0.39492333
1.620376 4.6159039 -0.78721988
0.47559917 37.520981 3.4527802
1.5873165 5.5576215 -0.79049808
1.7568461 0.77603418 -0.073607258
1.5341908 7.0710745 -0.79367131
1.7568461 0.77603418 -0.073607258
1.4226698 10.246557 -0.82298434
0.48727036 37.455044 7.3789649
1.7568461 0.77603418 -0.073607258
1.7568461 0.77603418 -0.073607258
1.4948897 8.2351265 -0.14153552
1.7568461 0.77603418 -0.073607258
1.669723 3.4793677 -0.77420205
1.5184704 8.3337584 0.12150118
1.6541792 3.9705071 -0.78345162
1.515136 8.4600468 0.3936455
1.6335706 4.6222463 -0.78834766
0.60084748 37.62476 3.462019
1.6033554 5.5779462 -0.79350179
0.60086119 37.724846 4.7787714
1.5557647 7.0837226 -0.79508692
1.7568461 0.77603418 -0.073607258
1.4565947 10.21976 -0.82085603
0.61320746 37.533768 7.3937798
1.518237 8.3009529 -0.40520296
1.7568461 0.77603418 -0.073607258
1.5196614 8.2759733 -0.14196232
1.7568461 0.77603418 -0.073607258
1.6784873 3.5106206 -0.78224969
1.5453496 8.3405609 0.12159026
1.6658108 3.9630406 -0.78174472
1.5429766 8.4488935 0.39285085
1.6473109 4.6226559 -0.78838098
0.73058116 37.708294 3.4693351
1.6211884 5.5547323 -0.78998673
1.7568461 0.77603418 -0.073607258
1.5779743 7.0963135 -0.7965048
1.7568461 0.77603418 -0.073607258
1.4890118 10.268598 -0.82472265
0.74062753 37.694435 7.4252977
1.5439147 8.3456964 -0.40720472
1.7568461 0.77603418 -0.073607258
1.5463254 8.2827702 -0.14208212
1.7568461 0.77603418 -0.073607258
1.6886392 3.495393 -0.77826148
1.5722266 8.349267 0.12172999
1.6769979 3.9711466 -0.78350729
1.7568461 0.77603418 -0.073607258
1.6614447 4.6072903 -0.78549272
0.86119312 37.779438 3.4755006
1.6377749 5.5749531 -0.79299271
1.7568461 0.77603418 -0.073607258
1.6008615 7.0849872 -0.79519701
1.7568461 0.77603418 -0.073607258
1.523445 10.249557 -0.82322896
0.87106991 37.776287 7.4408913
1.5710871 8.342411 -0.40709513
1.7568461 0.77603418 -0.073607258
1.5726444 8.3054676 -0.14234889
1.7568461 0.77603418 -0.073607258
1.6980423 3.48786 -0.77627814
1.5972941 8.3838339 0.12254205
1.6875995 3.9831052 -0.78613633
1.7568461 0.77603418 -0.073607258
1.6743793 4.6115184 -0.78625566
0.98358864 37.957458 3.4919846
1.6540873 5.5753241 -0.79303324
1.7568461 0.77603418 -0.073607258
1.6215506 7.1212339 -0.79934031
1.7568461 0.77603418 -0.073607258
1.5548626 10.288163 -0.82630593
0.9949559 37.888897 7.462862
1.5959846 8.3829489 -0.4089202
1.7568461 0.77603418 -0.073607258
1.5982684 8.3060513 -0.14241257
1.7568461 0.77603418 -0.073607258
1.7072519 3.4880381 -0.77630126
1.6231921 8.3843346 0.12247694
1.6986008 3.9774594 -0.7848627
1.7568461 0.77603418 -0.073607258
1.6874131 4.6117702 -0.78628838
1.1089153 38.035549 3.4989192
1.6702585 5.5835505 -0.79426014
1.7568461 0.77603418 -0.073607258
1.6431967 7.1176772 -0.79894012
1.7568461 0.77603418 -0.073607258
1.5872141 10.288789 -0.82638723
1.1201007 37.971687 7.4788589
1.6213679 8.411417 -0.41021827
1.7568461 0.77603418 -0.073607258
1.623117 8.3505363 -0.14287931
1.7568461 0.77603418 -0.073607258
1.7164044 3.4920566 -0.7773279
1.6486951 8.412735 0.12313215
1.7095342 3.9737284 -0.78402293
1.7568461 0.77603418 -0.073607258
1.7002162 4.627707 -0.789244
1.7568461 0.77603418 -0.073607258
1.6865997 5.5838108 -0.79430163
1.7568461 0.77603418 -0.073607258
1.6650479 7.0981526 -0.79672235
1.7568461 0.77603418 -0.073607258
1.6193382 10.305253 -0.82773161
1.2450747 38.106972 7.5055933
1.6469719 8.4378033 -0.41142946
1.7568461 0.77603418 -0.073607258
1.6482102 8.398941 -0.14338413
1.7568461 0.77603418 -0.073607258
1.7255391 3.4999156 -0.77935803
1.6743463 8.4450493 0.12388913
1.7204859 3.9660552 -0.78231591
1.7568461 0.77603418 -0.073607258
1.7134378 4.6160736 -0.78708559
1.360629 38.238235 3.5173528
1.7031193 5.568193 -0.79197174
1.7568461 0.77603418 -0.073607258
1.686455 7.1063695 -0.79768664
1.7568461 0.77603418 -0.073607258
1.6516159 10.317619 -0.82876158
1.3712875 38.210484 7.5259562
1.6729503 8.4461222 -0.41184884
1.7568461 0.77603418 -0.073607258
1.6740214 8.4112644 -0.14356074
1.7568461 0.77603418 -0.073607258
1.7347894 3.5000005 -0.77938205
1.7002609 8.4712772 0.12449037
1.7312133 3.9798203 -0.78538018
1.7568461 0.77603418 -0.073607258
1.7266108 4.6004624 -0.78419673
1.486799 38.438488 3.5361023
1.719161 5.599987 -0.796758
1.7568461 0.77603418 -0.073607258
1.7077031 7.1423321 -0.80183375
1.7568461 0.77603418 -0.073607258
1.6840374 10.321904 -0.82916152
1.4983634 38.290051 7.5415397
1.6988637 8.470336 -0.41297412
1.7568461 0.77603418 -0.073607258
1.6996766 8.4554987 -0.1440317
1.7568461 0.77603418 -0.073607258
1.7445145 3.5000548 -0.77940756
1.7276856 8.5014219 0.12518975
1.7426375 3.9837897 -0.78627783
1.7568461 0.77603418 -0.073607258
1.7402474 4.6064382 -0.78532875
1.7568461 0.77603418 -0.073607258
1.7365332 5.5684381 -0.79205906
1.7568461 0.77603418 -0.073607258
1.7302777 7.1861739 -0.80689418
1.7568461 0.77603418 -0.073607258
1.7180713 10.346021 -0.83114493
1.632314 38.439774 7.5714231
1.7263827 8.4704905 -0.41304642
1.7568461 0.77603418 -0.073607258
1.7272276 8.4356546 -0.14392029
1.7568461 0.77603418 -0.073607258
1.7539943 3.5078189 -0.78143936
1.7546576 8.4994783 0.1250667
1.7538157 3.9818606 -0.78587371
1.7568461 0.77603418 -0.073607258
1.7535956 4.6084323 -0.78572959
1.7568461 0.77603418 -0.073607258
1.7532315 5.5803404 -0.79388267
1.7568461 0.77603418 -0.073607258
1.7526784 7.1146874 -0.79876995
1.7568461 0.77603418 -0.073607258
1.7514496 10.354066 -0.83186501
1.7640175 38.530205 7.5893731
1.7532308 8.4705467 -0.41311771
1.7568461 0.77603418 -0.073607258
1.7539511 8.4637079 -0.14424856
1.7568461 0.77603418 -0.073607258
1.7635093 3.5078058 -0.78146487
1.7817507 8.5394278 0.12602252
1.7649653 3.9740355 -0.78416854
1.7568461 0.77603418 -0.073607258
1.766978 4.6182456 -0.78759241
1.7568461 0.77603418 -0.073607258
1.7700453 5.6040521 -0.79748625
1.7568461 0.77603418 -0.073607258
1.7747829 7.1146569 -0.79882926
1.8930376 38.723164 6.2581935
1.7847674 10.32212 -0.82942897
1.8964987 38.659382 7.6152744
1.7800789 8.4705095 -0.4131898
1.7568461 0.77603418 -0.073607258
1.7809579 8.5196695 -0.14483568
1.7568461 0.77603418 -0.073607258
1.7731159 3.5232477 -0.78550428
1.8088551 8.5392962 0.125949
1.776131 3.977886 -0.78506643
1.7568461 0.77603418 -0.073607258
1.7803688 4.6181803 -0.78762877
2.0191092 38.836861 3.572835
1.7867785 5.5881472 -0.79515934
1.7568461 0.77603418 -0.073607258
1.7968117 7.1026273 -0.79752511
2.0262346 38.801426 6.2709994
1.8185011 10.389743 -0.83488709
2.0297134 38.764572 7.636395
1.8071872 8.5103388 -0.41502666
1.7568461 0.77603418 -0.073607258
1.8080381 8.5275373 -0.14498267
1.7568461 0.77603418 -0.073607258
1.7825023 3.5038078 -0.78051341
1.8363249 8.5750551 0.12679937
1.7873237 3.9816971 -0.78596461
1.7568461 0.77603418 -0.073607258
1.793759 4.6180677 -0.78766549
2.1520629 38.835747 3.5724704
1.8037844 5.6117396 -0.79876441
1.7568461 0.77603418 -0.073607258
1.8191854 7.134233 -0.80122364
2.1601875 38.898941 6.2870913
1.8520356 10.389462 -0.83497906
2.1642919 38.928097 7.6694446
1.8347729 8.5700512 -0.4177472
1.7568461 0.77603418 -0.073607258
1.8351326 8.5313101 -0.14509374
1.7568461 0.77603418 -0.073607258
1.7919034 3.4959519 -0.77853286
1.8638265 8.5947237 0.12723744
1.7986699 3.99523 -0.78903252
1.7568461 0.77603418 -0.073607258
1.8071748 4.619875 -0.78806806
2.2877791 39.033237 3.5911715
1.8203294 5.5878072 -0.79525185
1.7568461 0.77603418 -0.073607258
1.841252 7.1260223 -0.80037546
2.2953815 39.035439 6.3097596
1.8857286 10.401025 -0.83601946
2.2985198 38.98531 7.6810064
1.8619679 8.5697289 -0.41782257
1.7568461 0.77603418 -0.073607258
1.862635 8.5629835 -0.145464
1.7568461 0.77603418 -0.073607258
1.8013134 3.491935 -0.77755588
1.8911226 8.594305 0.12716103
1.8096281 3.9794407 -0.78559297
1.7568461 0.77603418 -0.073607258
1.820701 4.6275339 -0.78956747
2.4248745 39.230247 3.609865
1.8369718 5.5796394 -0.79411232
1.7568461 0.77603418 -0.073607258
1.8641287 7.1693912 -0.80544072
2.4311855 39.151733 6.3291302
1.9186292 10.360641 -0.83295482
2.4337692 39.077324 7.6997242
1.8896363 8.5972805 -0.41913429
1.7568461 0.77603418 -0.073607258
1.8903588 8.5945616 -0.14583567
1.7568461 0.77603418 -0.073607258
1.8108494 3.4956276 -0.77858621
1.9188302 8.6137791 0.12759694
1.820594 3.9694705 -0.78345507
1.7568461 0.77603418 -0.073607258
1.8342024 4.6312127 -0.79033637
2.5602798 39.279469 3.6144421
1.8542355 5.6050305 -0.79801607
1.7568461 0.77603418 -0.073607258
1.8861002 7.1530776 -0.80368429
2.5668108 39.220203 6.3405972
1.953523 10.43177 -0.83873576
2.5709167 39.227654 7.7303677
1.9183974 8.6686792 -0.42238948
1.7568461 0.77603418 -0.073607258
1.9176465 8.5940456 -0.14591286
1.7568461 0.77603418 -0.073607258
1.8209541 3.5225132 -0.78563821
1.9467727 8.6371527 0.12813428
1.8318114 3.9731257 -0.78435481
1.7568461 0.77603418 -0.073607258
1.8474991 4.6250153 -0.78927827
2.6983662 39.423748 3.6281645
1.8708829 5.596745 -0.79687756
1.7568461 0.77603418 -0.073607258
1.9078661 7.1327162 -0.8014732
2.703994 39.331593 6.3592982
1.9857769 10.371223 -0.8340928
2.7081561 39.338295 7.7530494
1.9476582 8.739974 -0.42564687
1.7568461 0.77603418 -0.073607258
1.9455098 8.6174288 -0.146213
1.7568461 0.77603418 -0.073607258
1.8305198 3.5222659 -0.78566581
1.9749906 8.6644239 0.12877291
1.8435284 3.9943058 -0.78916007
1.7568461 0.77603418 -0.073607258
1.8608066 4.6207376 -0.78858596
2.8361421 39.51976 3.6373057
1.8881177 5.6121278 -0.79929954
1.7568461 0.77603418 -0.073607258
1.9310066 7.1678967 -0.80563188
2.8424063 39.458256 6.3806248
2.021317 10.446092 -0.84019321
2.8460708 39.444534 7.77493
1.9754456 8.7392569 -0.42572707
1.7568461 0.77603418 -0.073607258
1.9735379 8.6407118 -0.14651439
1.7568461 0.77603418 -0.073607258
1.8392634 3.4948938 -0.77866822
2.0031521 8.6836004 0.12920517
1.8550969 4.0056858 -0.79179651
1.7568461 0.77603418 -0.073607258
1.8745656 4.6321368 -0.79081827
2.9746008 39.615292 3.6464412
1.9043707 5.5918646 -0.79638165
1.7568461 0.77603418 -0.073607258
1.9521965 7.131494 -0.80160183
2.9813399 39.572601 6.399971
2.053695 10.401261 -0.83681524
2.9854832 39.573788 7.8015766
2.0040953 8.7664013 -0.42704484
1.7568461 0.77603418 -0.073607258
2.0013595 8.6519003 -0.14670575
1.7568461 0.77603418 -0.073607258
1.849125 3.5061922 -0.78170711
2.0315881 8.7066717 0.12973869
1.866613 4.0131221 -0.79356551
1.7568461 0.77603418 -0.073607258
1.8881371 4.6356263 -0.79158902
1.7568461 0.77603418 -0.073607258
1.9219676 5.6150341 -0.79999173
1.7568461 0.77603418 -0.073607258
1.9765327 7.1943135 -0.80894774
3.119009 39.627296 6.4094419
2.089046 10.451967 -0.84102297
3.1256702 39.69862 7.8274212
1.7568461 0.77603418 -0.073607258
1.7568461 0.77603418 -0.073607258
2.0289834 8.6549959 -0.14682381
1.7568461 0.77603418 -0.073607258
1.8589225 3.5135856 -0.78374285
2.0598848 8.7216501 0.13006607
1.8770154 3.9893003 -0.78839117
1.7568461 0.77603418 -0.073607258
1.9013668 4.6292429 -0.79053217
3.2573643 39.904327 3.6742213
1.9379445 5.5907035 -0.79648095
1.7568461 0.77603418 -0.073607258
1.9965166 7.1299615 -0.80173296
3.263165 39.839207 6.4452248
2.1229472 10.454726 -0.84143943
3.2660711 39.805321 7.8496804
2.0636363 8.8643036 -0.4316287
1.7568461 0.77603418 -0.073607258
2.0593703 8.7299404 -0.14761215
1.7568461 0.77603418 -0.073607258
1.8684511 3.5248325 -0.78678137
2.0870636 8.7405796 0.13049889
1.8890797 4.0239911 -0.79623526
1.7568461 0.77603418 -0.073607258
1.9140431 4.6267715 -0.79020494
3.3913484 39.998623 3.6833582
1.9550215 5.6177373 -0.80068356
3.3963394 40.017918 5.0739717
2.0187054 7.1569204 -0.80498207
3.3978186 39.952316 6.464572
2.1551814 10.457436 -0.84185183
3.4016197 39.94117 7.8779182
2.0904446 8.8632393 -0.43170914
1.7568461 0.77603418 -0.073607258
2.0862372 8.740881 -0.14780298
1.7568461 0.77603418 -0.073607258
1.8773763 3.5205727 -0.78580505
2.1147304 8.7674055 0.13113531
1.8989708 4.0040236 -0.79192752
1.7568461 0.77603418 -0.073607258
1.9269654 4.6301513 -0.7909748
3.5215058 39.993023 3.6829641
1.9703561 5.6012402 -0.79835778
3.5298181 40.083626 5.082932
2.0391383 7.14013 -0.8032254
3.5332446 40.06496 6.4839134
2.1874394 10.46004 -0.84226525
3.5377383 40.068722 7.9045601
2.1172504 8.8620844 -0.43179035
1.7568461 0.77603418 -0.073607258
2.1155014 8.8036776 -0.14847925
1.7568461 0.77603418 -0.073607258
1.8866227 3.5085142 -0.7828235
2.1452577 8.806016 0.1320709
1.9110548 4.0151887 -0.79456711
1.7568461 0.77603418 -0.073607258
1.9399824 4.6137991 -0.78809166
3.6764107 40.284779 3.7111087
1.987975 5.6083403 -0.7995978
3.6730998 40.128574 5.0892582
2.0624559 7.1509805 -0.80466056
3.680728 40.196346 6.5065069
2.2230189 10.478344 -0.84395218
3.684864 40.191387 7.9303684
2.1461678 8.8607407 -0.43187875
1.7568461 0.77603418 -0.073607258
2.1456645 8.8323069 -0.14884689
1.7568461 0.77603418 -0.073607258
1.8963771 3.5080256 -0.7828536
2.1739907 8.8045769 0.13198221
1.921823 3.999011 -0.79113019
1.7568461 0.77603418 -0.073607258
1.9546981 4.6327496 -0.79179072
3.82305 40.377106 3.720196
2.0052409 5.6074753 -0.79965109
3.8268747 40.367081 5.1210427
2.0840132 7.1260266 -0.80199939
3.8291745 40.327175 6.5290928
2.2589388 10.5005 -0.84595698
3.8308349 40.274349 7.9482183
2.1750801 8.859292 -0.43196803
1.7568461 0.77603418 -0.073607258
2.1748974 8.8388519 -0.14901057
1.7568461 0.77603418 -0.073607258
1.9058367 3.515274 -0.78488964
2.2030449 8.8470688 0.13302362
1.9335523 4.0179343 -0.79550433
2.2149594 9.0461922 0.42781198
1.9672518 4.628139 -0.79109913
3.9544587 40.370071 3.7197864
2.0216727 5.6145182 -0.8008883
3.9637938 40.459049 5.1336241
2.1078773 7.1764855 -0.80798364
3.965981 40.418636 6.5451274
2.2907236 10.49081 -0.84542471
3.9709806 40.427811 7.9804058
1.7568461 0.77603418 -0.073607258
1.7568461 0.77603418 -0.073607258
2.2040532 8.8813515 -0.14950523
1.7568461 0.77603418 -0.073607258
1.9144536 3.5070279 -0.78291017
2.2334383 8.9074221 0.13452321
1.9436054 4.00563 -0.7929334
1.7568461 0.77603418 -0.073607258
1.9804593 4.6352658 -0.79260206
4.0975389 40.561348 3.7384164
2.0383837 5.6254544 -0.80271989
4.0955153 40.451557 5.1332102
2.1276946 7.1514769 -0.80531842
4.1080732 40.588394 6.5743098
2.321986 10.473058 -0.84426045
4.1089272 40.525978 8.0014563
1.7568461 0.77603418 -0.073607258
1.7568461 0.77603418 -0.073607258
2.2339628 8.9317331 -0.15007639
1.7568461 0.77603418 -0.073607258
1.9256237 3.5296276 -0.78896517
2.2657609 8.9575491 0.13575861
1.9556165 4.0127287 -0.79470652
1.7568461 0.77603418 -0.073607258
1.9942443 4.6344347 -0.79264575
4.2523823 40.751457 3.757005
2.0544937 5.6046681 -0.79980594
4.2541909 40.708191 5.1675692
2.1509705 7.1580348 -0.80630141
4.2578506 40.693985 6.5929284
2.3596082 10.518724 -0.8481673
4.2599635 40.654324 8.0288277
2.2624993 8.9343596 -0.43576837
1.7568461 0.77603418 -0.073607258
2.2643759 8.949934 -0.15035635
1.7568461 0.77603418 -0.073607258
1.9339494 3.5058167 -0.78297234
2.2963483 8.9756279 0.1361753
1.9679337 4.0236793 -0.79734844
1.7568461 0.77603418 -0.073607258
2.0084095 4.6394401 -0.79378712
4.3955059 40.74231 3.7565467
2.0722609 5.6114602 -0.80104882
4.4055753 40.825691 5.1837358
2.17378 7.1565766 -0.80637443
4.4073696 40.783268 6.608911
2.3933964 10.500582 -0.847013
4.4140277 40.813389 8.0625505
2.2945504 8.9763584 -0.43780988
1.7568461 0.77603418 -0.073607258
2.2941396 8.9560471 -0.15052503
1.7568461 0.77603418 -0.073607258
1.9442225 3.5128846 -0.78501201
2.3248568 8.9616795 0.13577437
1.9792631 4.0190005 -0.79651761
1.7568461 0.77603418 -0.073607258
2.0227478 4.6463547 -0.79529482
4.5524206 40.931263 3.7751207
2.0919819 5.6458111 -0.80644953
4.5558991 40.914925 5.1962585
2.1965837 7.1550369 -0.8064481
4.5630598 40.95071 6.6380377
2.4300847 10.526081 -0.8493408
4.5646086 40.905384 8.0827532
2.3255291 8.9982967 -0.43896747
1.7568461 0.77603418 -0.073607258
2.3247819 8.9740229 -0.15080747
1.7568461 0.77603418 -0.073607258
1.953714 3.508328 -0.78403968
2.3561835 8.9875145 0.1363928
1.9899998 4.006494 -0.79395014
1.7568461 0.77603418 -0.073607258
2.0368557 4.6492939 -0.79607159
4.7104311 41.115635 3.7933054
2.1068099 5.609066 -0.80116093
4.7141523 41.102474 5.2217598
2.2222567 7.1930513 -0.81107748
4.7156501 41.058529 6.6572933
2.4658079 10.535534 -0.85040408
4.7204847 41.059364 8.1156664
2.3549323 8.9962063 -0.43906334
1.7568461 0.77603418 -0.073607258
2.3541069 8.9719381 -0.15090308
1.7568461 0.77603418 -0.073607258
1.9634672 3.5075994 -0.7840718
2.3889229 9.0291767 0.13741753
2.0015347 4.0056324 -0.79398811
2.4019034 9.1859264 0.43642235
2.0506902 4.6482606 -0.79611713
1.7568461 0.77603418 -0.073607258
2.1234779 5.5998869 -0.80002987
1.7568461 0.77603418 -0.073607258
2.2433805 7.167563 -0.80841959
4.8660111 41.126431 6.6699681
2.5013039 10.540878 -0.85115206
4.8753891 41.185379 8.1430073
2.3925416 9.1015921 -0.44394556
1.7568461 0.77603418 -0.073607258
2.3855588 8.9976645 -0.15126324
1.7568461 0.77603418 -0.073607258
1.9717913 3.5069499 -0.7840994
2.4179435 9.0750418 0.13855672
2.0129137 4.0243263 -0.79836321
2.4364896 9.2953625 0.4430961
2.061878 4.6394987 -0.79469287
5.0018921 41.392914 3.8209651
2.1416214 5.6421161 -0.80661279
1.7568461 0.77603418 -0.073607258
2.2619398 7.1541567 -0.80711758
5.0067415 41.333111 6.7057166
2.4302244 9.2665644 -0.74992931
5.0080986 41.289062 8.1656446
2.4214377 9.1434269 -0.44597992
1.7568461 0.77603418 -0.073607258
2.4138362 9.0355787 -0.15172362
1.7568461 0.77603418 -0.073607258
1.9806671 3.4984584 -0.78212267
2.4482391 9.0886259 0.13886726
2.0239091 4.019515 -0.7975325
2.4708767 9.3486481 0.44637543
2.0759871 4.6462421 -0.79620147
5.1520333 41.480576 3.830004
2.1576064 5.6289096 -0.80488729
1.7568461 0.77603418 -0.073607258
2.285161 7.1642289 -0.80855882
5.156703 41.41988 6.7216768
2.4558873 9.2164688 -0.74622822
5.1644559 41.453335 8.2009306
2.4588873 9.240613 -0.45051074
1.7568461 0.77603418 -0.073607258
2.4453087 9.0651236 -0.15212211
1.7568461 0.77603418 -0.073607258
1.9918013 3.5169427 -0.78717631
2.4786372 9.1020994 0.13917658
2.0355418 4.0224466 -0.7984392
2.5042634 9.3858862 0.44868737
2.0904839 4.6568518 -0.79844224
1.7568461 0.77603418 -0.073607258
2.1745214 5.6274743 -0.8049444
1.7568461 0.77603418 -0.073607258
2.3105068 7.1979733 -0.8127352
5.3124514 41.56506 6.7474909
2.4822383 9.1782169 -0.74347705
5.3196101 41.58968 8.2306471
2.4839427 9.1863518 -0.44830453
1.7568461 0.77603418 -0.073607258
2.475615 9.0786076 -0.15237096
1.7568461 0.77603418 -0.073607258
2.001585 3.516078 -0.78720963
2.5120237 9.1392908 0.14009279
2.0443506 3.9903092 -0.79152966
2.5386734 9.4229259 0.45099503
2.1039941 4.6517096 -0.79775757
5.47579 41.8522 3.8670735
2.1922081 5.6298819 -0.8055976
1.7568461 0.77603418 -0.073607258
2.3302581 7.1603222 -0.80871171
5.4753318 41.736828 6.7778854
2.5120964 9.1735773 -0.7434209
5.472599 41.650928 8.2452459
1.7568461 0.77603418 -0.073607258
1.7568461 0.77603418 -0.073607258
2.5103421 9.1317539 -0.15300195
1.7568461 0.77603418 -0.073607258
2.0120821 3.5228882 -0.78925198
2.5445642 9.1644039 0.14070204
2.0561893 3.9931412 -0.79243773
2.5696206 9.4200792 0.45088881
2.1176541 4.648478 -0.79743916
5.6228428 41.838673 3.8665688
2.2095494 5.6282864 -0.80565715
1.7568461 0.77603418 -0.073607258
2.3541827 7.1700926 -0.81015742
5.6268811 41.774391 6.7859254
2.5502863 9.2581568 -0.75049406
5.6382461 41.840401 8.2860584
1.7568461 0.77603418 -0.073607258
1.7568461 0.77603418 -0.073607258
2.5428436 9.1568794 -0.15336987
1.7568461 0.77603418 -0.073607258
2.0218339 3.523901 -0.78978735
2.5816002 9.2412024 0.14263394
2.0692725 4.0115023 -0.79682016
2.599803 9.4171944 0.45078427
2.1300125 4.6354456 -0.79529017
1.7568461 0.77603418 -0.073607258
2.2264624 5.6266699 -0.80571574
1.7568461 0.77603418 -0.073607258
2.3776271 7.1798282 -0.81160206
5.7963061 42.027721 6.8301177
2.5798688 9.2553291 -0.75059646
5.7955689 41.96714 8.3141632
2.5842271 9.2894888 -0.45358214
1.7568461 0.77603418 -0.073607258
2.5759645 9.1938944 -0.15385064
1.7568461 0.77603418 -0.073607258
2.0296702 3.5056159 -0.78530049
2.6151659 9.278059 0.14354688
2.081321 4.0181556 -0.79859704
1.7568461 0.77603418 -0.073607258
2.1430693 4.6302004 -0.79460514
5.949728 42.206913 3.9036012
2.2441599 5.6328664 -0.80696332
1.7568461 0.77603418 -0.073607258
2.3975716 7.1538911 -0.80894476
5.9492359 42.0998 6.8440719
2.6094422 9.2523985 -0.75069976
5.9534349 42.089378 8.341466
2.6139283 9.2865458 -0.45368585
1.7568461 0.77603418 -0.073607258
2.60534 9.1909828 -0.15395322
1.7568461 0.77603418 -0.073607258
2.0393751 3.506566 -0.78583622
2.6477528 9.3028526 0.14415336
2.0922124 4.0131125 -0.797768
1.7568461 0.77603418 -0.073607258
2.1591363 4.6542459 -0.79941058
1.7568461 0.77603418 -0.073607258
2.2590454 5.6114564 -0.80405122
1.7568461 0.77603418 -0.073607258
2.4247403 7.1990404 -0.81449431
6.1060109 42.202698 6.8632755
2.6390042 9.2493649 -0.75080389
6.1142492 42.230507 8.3727331
1.7568461 0.77603418 -0.073607258
1.7568461 0.77603418 -0.073607258
2.6388569 9.2277508 -0.15443709
1.7568461 0.77603418 -0.073607258
2.0486774 3.5036316 -0.78536773
2.6826694 9.3474016 0.14526594
