# .PCD v0.7 - Point Cloud Data file format
VERSION 0.7
FIELDS x y z
SIZE 4 4 4
TYPE F F F
COUNT 1 1 1
WIDTH 1526
HEIGHT 1
VIEWPOINT 0 0 0 1 0 0 0
POINTS 1526
DATA ascii
19.24305 6.4264774 -1.3392537
-0.047603473 3.9333749 -0.17334765
21.098898 6.6740003 -0.70577461
21.511311 6.7912183 5.4788165
2.7593718 4.279881 -0.95384866
28.372774 7.526186 0.11245251
3.2285945 4.3390713 -0.96149307
21.369204 6.6485968 0.79620928
3.9054506 4.4243908 -0.97855693
21.392817 6.6594038 1.5547364
4.9096699 4.5509863 -1.00286
21.169163 6.6387434 2.2905328
6.722013 4.7792902 -1.0627921
21.224941 6.6537161 3.0589902
11.088725 5.3290367 -1.2398248
21.344809 6.6770334 3.8516586
19.243755 6.3581095 -1.3380811
21.563173 6.7132163 4.6854429
21.078596 6.5964117 -0.70426601
21.536293 6.7180548 5.4836164
2.7529371 4.2691464 -0.95161939
28.385132 7.4269686 0.11347705
3.2261584 4.3271518 -0.96044606
21.366617 6.5723791 0.79644245
3.907172 4.4105725 -0.97841424
21.408072 6.5853195 1.5559874
4.9470844 4.5379286 -1.0085769
21.168524 6.5634999 2.2901523
6.7367725 4.757071 -1.0640988
21.226332 6.5785398 3.0585637
11.0659 5.2867641 -1.2367754
21.334593 6.5999994 3.8487594
19.22044 6.2868595 -1.3354731
21.537689 6.6335096 4.6783843
21.105646 6.5248308 -0.70395225
21.53414 6.6413736 5.4813738
2.7732725 4.2615814 -0.956837
28.436857 7.3324547 0.11490607
3.2352724 4.3166084 -0.96218479
21.36574 6.4964552 0.79676646
3.8991091 4.3956089 -0.97629058
21.389418 6.5071278 1.5545287
4.9374394 4.5190926 -1.0064313
21.159727 6.4873495 2.2888572
6.7593355 4.7356892 -1.0664376
21.211746 6.5014958 3.0557528
11.114099 5.253087 -1.2405329
21.351418 6.5263858 3.8509991
19.220652 6.2186294 -1.3342991
21.527418 6.5559034 4.674809
21.090757 6.4481387 -0.70259148
21.529791 6.5645127 5.4786286
2.7476096 4.2486906 -0.94928914
28.448536 7.2330179 0.1159372
3.2404869 4.3055682 -0.96299422
21.386425 6.4231024 0.7980811
3.8890424 4.3804855 -0.97377121
21.378401 6.4300184 1.5537081
4.9610486 4.5041289 -1.0098521
21.172361 6.4138255 2.2900822
6.7700114 4.7128072 -1.0672245
21.226353 6.4280367 3.0574167
11.07516 5.209106 -1.235971
21.348469 6.450387 3.8495696
19.204758 6.1485977 -1.3321686
-0.047603473 3.9333749 -0.17334765
21.101416 6.3745594 -0.70187575
21.450205 6.4788351 5.456254
2.7563896 4.2397537 -0.95131457
21.249529 6.3241315 0.043541163
3.2437296 4.2942843 -0.96333897
21.315531 6.3393531 0.79525763
3.9042506 4.368227 -0.97640014
21.351259 6.3512278 1.5516105
4.9277434 4.482728 -1.0037783
21.190666 6.3409185 2.2919977
6.7766666 4.6894245 -1.0674934
21.226944 6.3529449 3.0569942
11.079586 5.1702538 -1.2355673
21.353058 6.3753338 3.8496106
19.204477 6.0804787 -1.3309927
-0.047603473 3.9333749 -0.17334765
21.089956 6.2984943 -0.70061278
21.393358 6.3963962 5.4399161
2.768976 4.2311649 -0.95440269
21.235867 6.2474113 0.044091851
3.2391965 4.2821617 -0.96182686
21.252258 6.2569962 0.79279083
3.9135725 4.3552442 -0.97783989
21.365448 6.2772131 1.5528672
4.9335861 4.4657607 -1.0042517
21.149469 6.2614074 2.2870383
6.767467 4.6643133 -1.065696
21.227272 6.2778792 3.0565734
11.127428 5.1360741 -1.2393169
21.345665 6.2989831 3.84745
19.172201 6.0089583 -1.3279078
21.494932 6.3237085 4.6640849
21.112017 6.2262001 -0.70019072
21.505486 6.3332338 5.4678831
2.7700281 4.2213149 -0.95429993
-0.047603473 3.9333749 -0.17334765
3.2365537 4.2702732 -0.96077889
21.379416 6.1952419 0.79897624
3.9111521 4.3409967 -0.9769038
21.383345 6.2035456 1.554446
4.9432969 4.4491649 -1.005379
21.143543 6.1859894 2.2862048
6.7305574 4.6364098 -1.0602849
21.227333 6.202837 3.0561533
11.068227 5.0904417 -1.2328694
21.365366 6.2256393 3.8504317
19.195259 5.9434948 -1.3281608
21.493254 6.2475634 4.6626902
21.096048 6.1498179 -0.69882673
21.52121 6.2589412 5.4706812
2.7633715 4.2107043 -0.95207065
-0.047603473 3.9333749 -0.17334765
3.2570999 4.2607088 -0.96529835
21.383167 6.1200523 0.79957777
3.896975 4.3256068 -0.97359294
21.383139 6.1279516 1.5545883
4.9156489 4.4287834 -1.0002899
21.159086 6.1128731 2.287895
6.7606325 4.6154952 -1.06365
21.199593 6.12498 3.0515552
11.103936 5.0547996 -1.2354822
21.341791 6.1477308 3.8453348
19.206177 5.8766918 -1.3276963
21.493248 6.1716576 4.6617322
21.099697 6.0755882 -0.69795609
21.519354 6.1827583 5.4689493
2.7720299 4.2016053 -0.95409358
-0.047603473 3.9333749 -0.17334765
3.2621262 4.2495251 -0.96610498
21.396597 6.0458479 0.80063248
3.9022539 4.3121939 -0.97423989
21.362825 6.0504303 1.5531323
4.940948 4.4137087 -1.0040326
21.162516 6.0385027 2.2882113
6.7511616 4.5905647 -1.0618529
21.226665 6.0528374 3.0553181
11.095933 5.0146942 -1.2339425
21.34141 6.0723658 3.8446462
19.22481 5.8106151 -1.3277059
21.496857 6.0961742 4.6616473
21.085178 5.9996138 -0.69664043
21.496042 6.1044855 5.4616771
2.7614586 4.19069 -0.95080155
-0.047603473 3.9333749 -0.17334765
3.2593653 4.2375979 -0.96505594
21.401814 5.9708204 0.80132776
3.9074869 4.298749 -0.97488618
21.385891 5.9772396 1.555197
4.9347672 4.3955474 -1.0025415
21.14986 5.9626203 2.2866929
6.7810946 4.569387 -1.0652144
21.214121 5.9767494 3.0531099
11.09968 4.975771 -1.2335339
21.329021 5.9958973 3.8417537
19.237251 5.7438726 -1.3273561
21.484655 6.0191865 4.6580763
21.098251 5.926393 -0.69601327
21.507122 6.0297747 5.4634733
2.7777357 4.1822205 -0.9549489
-0.047603473 3.9333749 -0.17334765
3.2488103 4.2250075 -0.96215183
21.400799 5.8952317 0.80175352
3.9224391 4.286139 -0.97750956
21.361065 5.8995333 1.553422
4.9383473 4.3783112 -1.0026854
21.130999 5.8862991 2.2844863
6.7635536 4.5437579 -1.062385
21.217062 5.9022274 3.0532925
11.087427 4.9354038 -1.2316163
21.339848 5.9217196 3.8432734
19.227589 5.6750855 -1.3256965
21.483847 5.9433932 4.6571221
21.103107 5.8523793 -0.69518739
21.485188 5.9519367 5.4567065
2.7670894 4.1713657 -0.95165718
28.927917 6.4710851 0.12842757
3.2575929 4.2141418 -0.96388501
21.383593 5.8182769 0.80145651
3.9314911 4.2729292 -0.97894526
21.36376 5.8244824 1.553889
4.9379358 4.3607192 -1.0021749
21.133635 5.812067 2.2848058
6.765677 4.5199614 -1.062134
21.211861 5.8270092 3.0522811
11.138508 4.9006262 -1.2357278
21.330839 5.8457417 3.8411176
19.243542 5.6086354 -1.3255806
21.478884 5.8672838 4.6552973
21.093763 5.7771425 -0.6940164
21.493809 5.8770609 5.4580011
2.783308 4.1627688 -0.95580274
-0.047603473 3.9333749 -0.17334765
3.2702179 4.2035336 -0.96654445
21.395977 5.7439871 0.80251843
3.9248669 4.2583818 -0.9772166
21.374136 5.7501111 1.5549989
4.9472957 4.3439441 -1.0032978
21.145905 5.7386832 2.2862756
6.7795768 4.4971371 -1.0634286
21.182751 5.7498288 3.0476837
11.110106 4.8589196 -1.2323017
21.317642 5.7695136 3.8382275
19.277172 5.5435877 -1.3265312
21.460032 5.7900572 4.6504197
21.078176 5.7014937 -0.69269782
21.469393 5.7993064 5.4507303
2.7610526 4.151082 -0.94932443
21.256227 5.6494336 0.049970329
3.2595334 4.1910281 -0.96364057
21.302557 5.6610951 0.79877675
3.9025538 4.242661 -0.97232562
21.364388 5.674077 1.5545075
4.9408622 4.325871 -1.0018063
21.142082 5.6639452 2.2859094
6.7775831 4.4729729 -1.0626609
21.200663 5.6767573 3.0502613
11.137129 4.8218403 -1.2341483
21.310055 5.6938877 3.8364418
19.282719 5.4761047 -1.3258169
-0.047603473 3.9333749 -0.17334765
21.046371 5.6247005 -0.69098777
21.373333 5.7158093 5.424809
2.777209 4.1423993 -0.95346874
21.194283 5.5698485 0.050046161
3.2526822 4.1788898 -0.96166414
21.202845 5.5784149 0.79475743
3.9231911 4.2303171 -0.9761318
21.254984 5.5904026 1.5459955
4.930428 4.3075523 -0.9996618
21.137995 5.5892558 2.2855437
6.7794595 4.4491286 -1.062408
21.204521 5.6024985 3.0507486
11.116379 4.7809653 -1.2314758
21.219881 5.6118398 3.8192036
19.246225 5.4054127 -1.3226106
21.246393 5.6221848 4.6013999
21.078081 5.5530424 -0.69084144
21.251875 5.6310053 5.3923283
2.7702577 4.131979 -0.95123976
21.10811 5.4889545 0.049866244
3.257431 4.1676269 -0.96246827
21.114771 5.4973321 0.79127711
3.9418349 4.2176929 -0.97954106
21.171108 5.5094299 1.5395634
4.941576 4.2908621 -1.0011096
21.137608 5.5149088 2.2856395
6.7931213 4.4261322 -1.0636995
21.188402 5.526752 3.0482454
11.135196 4.7431211 -1.2325661
21.221537 5.5373878 3.8192561
19.223412 5.3360066 -1.3202355
21.228617 5.5461826 4.596952
21.077644 5.4788465 -0.68991119
21.255526 5.5566235 5.3926125
2.7786593 4.1226411 -0.95325851
21.039585 5.4099393 0.0498714
3.2582591 4.1560726 -0.96234518
21.108107 5.4226365 0.79151839
3.9291413 4.2028213 -0.97662663
21.174425 5.4352546 1.5401917
4.946763 4.2736959 -1.0015769
21.148846 5.4414301 2.2871165
6.7433877 4.3987079 -1.0567524
21.205545 5.4535356 3.0508299
11.153888 4.7051558 -1.2336543
20.709206 5.426002 3.7228796
19.204334 5.2670546 -1.3180974
20.741415 5.4364038 4.4873247
20.586279 5.3704996 -0.67700279
21.266638 5.4827976 5.3949165
2.7793331 4.1127586 -0.95315307
20.631538 5.3088574 0.046270102
3.2551632 4.1442676 -0.96129543
21.105164 5.3482728 0.7919423
3.9222627 4.1884189 -0.9748981
21.177485 5.3610754 1.5408211
4.9440141 4.2559896 -1.0007378
21.140011 5.3665509 2.2862952
6.7766719 4.3770418 -1.0606165
21.186922 5.3778033 3.0480292
11.124763 4.6639519 -1.2302294
20.714136 5.3536272 3.7236521
19.204931 5.1995625 -1.3171434
20.740511 5.3635311 4.4867883
20.593182 5.2985916 -0.67628264
21.263975 5.4079781 5.3936915
2.7915211 4.1035657 -0.95623189
20.626225 5.2360463 0.046935648
3.2675624 4.1334248 -0.96395093
21.113926 5.2747064 0.79291391
3.9427295 4.1757326 -0.97869951
21.166353 5.2860041 1.5403273
4.9845324 4.2409544 -1.0070775
21.164616 5.2939134 2.2893872
6.772274 4.3528352 -1.0595897
21.179869 5.3029828 3.0470252
11.111388 4.6239448 -1.2283092
20.814939 5.2874742 3.7424679
19.233191 5.1338201 -1.3178437
-0.047603473 3.9333749 -0.17334765
20.601833 5.226778 -0.67560905
21.257191 5.3329415 5.391459
2.7728758 4.0925522 -0.9508186
20.676552 5.1666183 0.048199713
3.268271 4.1218357 -0.96382672
21.122431 5.201098 0.79388744
3.9396677 4.1615624 -0.97776031
21.16292 5.2115107 1.5404773
4.9540882 4.2215552 -1.0016692
21.149311 5.218719 2.2878776
6.7816505 4.3294697 -1.0603632
21.184399 5.2289538 3.0478184
11.129672 4.5858984 -1.229394
20.766413 5.2114811 3.7333038
19.257238 5.0676641 -1.3183043
-0.047603473 3.9333749 -0.17334765
20.598259 5.1542149 -0.67464274
21.255936 5.2583327 5.3907413
2.7811468 4.0830975 -0.95283526
20.676729 5.0940537 0.048933595
3.24951 4.1092072 -0.95907211
21.054876 5.123168 0.79139763
3.9443862 4.1478362 -0.97840029
21.183111 5.1384077 1.5425587
4.9472141 4.2036505 -1.0001769
21.145638 5.1443224 2.28775
6.7691622 4.3048553 -1.0583073
21.184713 5.1546774 3.0480139
11.143852 4.5475116 -1.2301011
20.735268 5.1368599 3.727453
19.241188 4.9991469 -1.3163993
20.901888 5.1547146 4.5223103
20.624372 5.0833535 -0.6744011
21.258284 5.1839705 5.3910341
2.7816823 4.0732059 -0.95272881
20.678648 5.0216103 0.049690306
3.2617936 4.0982618 -0.96172577
21.072828 5.0502639 0.79282874
3.9451416 4.133884 -0.97825015
21.167212 5.0632734 1.5417464
4.9757485 4.1875935 -1.0045545
21.159559 5.0709271 2.2896976
6.7546062 4.2802324 -1.0559949
21.192673 5.0808434 3.0494101
11.114152 4.5067878 -1.2266781
20.715637 5.0631142 3.7238109
19.240847 4.9315839 -1.3154385
-0.047603473 3.9333749 -0.17334765
20.618296 5.0106616 -0.67338312
21.262304 5.1097164 5.3918333
2.793741 4.0638442 -0.955805
20.726259 4.9514217 0.050944597
3.2584922 4.086513 -0.9606753
21.110485 4.9782367 0.79517615
3.9301798 4.1191978 -0.97494233
21.174942 4.9894557 1.5428662
4.9884639 4.1705985 -1.0063213
21.149414 4.9962578 2.2888815
6.7736397 4.2573166 -1.0580513
21.188526 5.006372 3.0490096
11.120103 4.4679947 -1.2266331
20.862619 4.9980183 3.7514925
19.240269 4.8640389 -1.3144765
-0.047603473 3.9333749 -0.17334765
20.611967 4.9380293 -0.67236418
21.256401 5.0349517 5.39011
2.7672365 4.0527649 -0.94827199
20.813583 4.8827295 0.052636728
3.2590373 4.0749559 -0.96055049
21.078039 4.9027529 0.79432803
3.9269176 4.1051259 -0.9740029
21.138605 4.9135685 1.5404444
4.9577518 4.1516256 -1.0009162
21.137026 4.9215775 2.2878358
6.8044858 4.2347946 -1.0616472
21.158436 4.9307327 3.044714
11.137856 4.4296951 -1.2277119
20.899437 4.9266939 3.7585449
19.265385 4.797668 -1.3150461
-0.047603473 3.9333749 -0.17334765
20.605377 4.8654513 -0.67134434
21.238638 4.9596796 5.3853588
2.7753739 4.0432229 -0.95028687
20.610956 4.8012714 0.051187873
3.2634301 4.0635495 -0.9613508
21.109205 4.8302178 0.79640681
3.9392791 4.0917025 -0.97621983
21.157764 4.8403349 1.5425334
4.9782319 4.1349273 -1.0039856
21.158115 4.848455 2.2907112
6.8253493 4.2116604 -1.0639561
21.173519 4.8572965 3.0473132
11.123645 4.3899784 -1.2257895
20.682673 4.8439999 3.7180476
19.266331 4.7301483 -1.3141983
-0.047603473 3.9333749 -0.17334765
20.584551 4.7923522 -0.66998696
21.251543 4.8859301 5.3886862
2.7873333 4.0337625 -0.95336133
20.61385 4.7291665 0.051969782
3.2638948 4.0519757 -0.96122533
21.072239 4.754837 0.795376
3.9594324 4.0784783 -0.98001331
21.160734 4.7663536 1.5433357
4.9552736 4.1165004 -0.99988568
21.145205 4.7738585 2.2896674
6.8064919 4.1869178 -1.0611285
21.182417 4.7835302 3.0490155
11.109293 4.3503675 -1.2238677
20.681648 4.7715645 3.7180939
19.265049 4.6625571 -1.3132315
20.739704 4.7821293 4.486042
20.56147 4.7193336 -0.66858178
21.258389 4.8118634 5.390501
2.7876966 4.0238495 -0.95325363
20.620491 4.6571875 0.052797124
3.2604296 4.0402732 -0.96017438
21.102894 4.6821232 0.79745972
3.9442685 4.063961 -0.97670609
21.163446 4.6923575 1.5441396
4.9795809 4.0998025 -1.0036044
21.141958 4.699717 2.2897782
6.7954755 4.1625743 -1.0593283
21.189081 4.7096348 3.05042
11.09878 4.3109946 -1.2223206
20.698046 4.6997952 3.7214603
19.253553 4.5946388 -1.3116751
20.730656 4.709229 4.4842067
20.558111 4.6471744 -0.66765618
21.266912 4.7378273 5.3928227
2.7726035 4.0134978 -0.94890481
20.620882 4.5849872 0.053560525
3.2802627 4.0292702 -0.9646734
21.105339 4.6083183 0.79826325
3.9368911 4.0497808 -0.9749769
21.17387 4.6186147 1.5455911
4.9801621 4.0822372 -1.0034131
21.148378 4.6259375 2.2910447
6.8081632 4.1390266 -1.0606077
21.183632 4.6353159 3.0500259
11.104052 4.2721868 -1.2222712
20.698479 4.6274004 3.721879
-0.047603473 3.9333749 -0.17334765
20.73501 4.6368685 4.4854331
-0.047603473 3.9333749 -0.17334765
21.259705 4.6632171 5.3911061
2.7767384 4.0042272 -0.94986272
-0.047603473 3.9333749 -0.17334765
3.2844815 4.0183182 -0.96547771
21.11142 4.5383077 0.79921174
3.9510062 4.0369072 -0.97759235
21.152052 4.547585 1.5444207
4.9727688 4.0653405 -1.0019288
21.160397 4.5559921 2.2929652
6.7850466 4.1156397 -1.0572813
21.183748 4.5649185 3.050493
8.4577913 4.1635442 -0.9729774
20.731958 4.5596313 3.7285316
8.4365091 4.1662216 -0.67297971
20.754612 4.568583 4.490119
-0.047603473 3.9333749 -0.17334765
21.250196 4.5923152 5.3888445
2.7769983 3.9943519 -0.94975483
-0.047603473 3.9333749 -0.17334765
3.2847886 4.00667 -0.96535045
21.117359 4.464572 0.80020243
3.9592149 4.023108 -0.97901624
21.146027 4.4734201 1.5445826
4.9692855 4.047709 -1.001086
21.156387 4.481863 2.2930808
6.7975726 4.0920467 -1.0585591
21.203487 4.4913454 3.0540037
8.3749657 4.1318679 -0.96479636
21.16223 4.4985981 3.809768
-0.047603473 3.9333749 -0.17334765
21.088173 4.5050416 4.5652671
-0.047603473 3.9333749 -0.17334765
21.248285 4.5179868 5.3886452
2.7849367 3.9846153 -0.95176631
-0.047603473 3.9333749 -0.17334765
3.2694907 3.9947333 -0.96152467
21.103067 4.3903699 0.80027568
3.9575741 4.0090675 -0.97846878
21.167645 4.3999176 1.5470085
4.9578481 4.0299511 -0.99894166
21.138216 4.4074578 2.29158
6.7981195 4.0681343 -1.0582972
21.185413 4.4167862 3.0518124
8.3756371 4.1024513 -0.9644742
21.17178 4.4248314 3.8120542
-0.047603473 3.9333749 -0.17334765
21.226425 4.4345851 4.5966954
-0.047603473 3.9333749 -0.17334765
21.244175 4.4436321 5.3879423
2.7967024 3.9746318 -0.95483381
-0.047603473 3.9333749 -0.17334765
3.2541547 3.9826162 -0.95769668
21.096539 4.3145747 0.80073762
3.9460878 3.9945402 -0.97594738
21.165125 4.3239784 1.5475175
4.9581938 4.0120249 -0.99874496
21.141663 4.3317509 2.2926421
6.8065252 4.0437498 -1.0590534
21.190832 4.3409657 3.0532463
8.4001093 4.0726914 -0.96638614
21.181107 4.3491545 3.8143628
-0.047603473 3.9333749 -0.17334765
21.239603 4.3588099 4.6001554
-0.047603473 3.9333749 -0.17334765
21.290144 4.3684845 5.4004002
2.7852924 3.9643121 -0.95154333
8.1390772 4.0485334 -0.081941791
3.2737989 3.9710064 -0.96218789
21.181631 4.24016 0.80543751
3.9502342 3.9802802 -0.97657788
21.267973 4.24963 1.5566018
4.9821544 3.9943843 -1.0024509
21.14683 4.2560554 2.2939374
6.7910447 4.0190096 -1.0567341
21.176208 4.2648034 3.0516772
8.4085512 4.0425529 -0.96680099
21.198023 4.2735424 3.8181508
-0.047603473 3.9333749 -0.17334765
-0.047603473 3.9333749 -0.17334765
-0.047603473 3.9333749 -0.17334765
21.393887 4.2939897 5.4280272
2.7854135 3.9544075 -0.9514342
-0.047603473 3.9333749 -0.17334765
3.2817235 3.9594576 -0.96390814
21.254452 4.1668715 0.8095718
3.9464831 3.9662766 -0.97563636
21.320704 4.1758561 1.5616286
4.9823689 3.9768107 -1.0022573
21.151705 4.1821785 2.2952147
6.8191042 3.9953718 -1.0600566
21.183044 4.1908655 3.0533943
8.4089117 4.013021 -0.96647567
21.206787 4.1995716 3.8204439
-0.047603473 3.9333749 -0.17334765
29.074451 4.3097949 6.3586802
-0.047603473 3.9333749 -0.17334765
21.448977 4.2199936 5.4430046
2.7739282 3.9444568 -0.94814724
8.1076775 3.9911594 -0.081671387
3.2701497 3.9477692 -0.96100789
8.676856 3.9985597 0.22954011
3.9387615 3.952281 -0.97390711
21.32933 4.1013708 1.5630994
4.9588423 3.9591143 -0.99816215
21.148376 4.1082029 2.2955678
6.7994785 3.9712751 -1.0572314
21.177757 4.1167789 3.0533094
8.393239 3.9833925 -0.96465635
21.191711 4.1253271 3.8183072
7.9844408 3.9840856 -0.64431906
29.063629 4.2081747 6.3571744
-0.047603473 3.9333749 -0.17334765
21.453495 4.1451192 5.4448428
2.7855513 3.9345973 -0.95121539
-0.047603473 3.9333749 -0.17334765
3.2585347 3.9361625 -0.95810825
-0.047603473 3.9333749 -0.17334765
3.9545209 3.9383698 -0.97690278
21.32374 4.0267692 1.5634379
4.9826136 3.9416616 -1.0018692
21.144787 4.034256 2.2959223
6.779768 3.9473171 -1.0544071
21.190006 4.0428257 3.0559316
8.4212704 3.9539821 -0.96694267
21.176371 4.0511932 3.8161697
7.9366693 3.9559059 -0.64120108
29.056351 4.1066604 6.3565445
-0.047603473 3.9333749 -0.17334765
21.461628 4.0702429 5.4476933
2.7894258 3.9246798 -0.95216441
-0.047603473 3.9333749 -0.17334765
3.2624464 3.9245956 -0.95890385
8.3414259 3.9375079 0.21468893
3.938858 3.9244187 -0.97359866
21.327854 3.9522152 1.5645881
4.9708042 3.924108 -0.99972463
21.148888 3.9603438 2.2972043
6.7917104 3.9234505 -1.0556784
21.17234 3.9687369 3.0540457
11.149379 3.9215157 -1.2221467
21.184359 3.9772146 3.8184679
7.9167514 3.9280407 -0.63972306
29.052622 4.0052056 6.3567929
-0.047603473 3.9333749 -0.17334765
21.465628 3.9952979 5.4495358
2.8048379 3.9149089 -0.95629215
-0.047603473 3.9333749 -0.17334765
3.2741024 3.9132438 -0.96154916
-0.047603473 3.9333749 -0.17334765
3.9447172 3.9108024 -0.97462857
21.335701 3.8794875 1.5660439
4.974721 3.9069917 -1.0001845
21.140818 3.8882775 2.2970781
6.7956371 3.9001377 -1.0559313
21.19001 3.896559 3.0575538
11.117453 3.8835313 -1.2187402
21.188171 3.9050372 3.8200085
7.9406643 3.9008296 -0.6408242
29.071968 3.9062917 6.3622708
-0.047603473 3.9333749 -0.17334765
21.465502 3.9222028 5.4503474
2.7932162 3.9052997 -0.95300812
-0.047603473 3.9333749 -0.17334765
3.2818279 3.9018495 -0.96326989
-0.047603473 3.9333749 -0.17334765
3.9466083 3.8971815 -0.9748708
21.3134 3.8068836 1.5650682
4.9746332 3.8898828 -0.99999434
21.150383 3.8161674 2.2990379
6.8113856 3.8766997 -1.057718
21.161959 3.8244944 3.0541449
11.049556 3.846046 -1.2119811
21.183867 3.8328712 3.8200717
8.04035 3.8728883 -0.64635992
29.055847 3.8073981 6.3598666
7.8100276 3.8776693 -0.35812676
21.445776 3.8491843 5.4461012
2.777703 3.8955739 -0.94866365
-0.047603473 3.9333749 -0.17334765
3.2700531 3.890363 -0.96037066
-0.047603473 3.9333749 -0.17334765
3.9386456 3.8833215 -0.97314161
21.338673 3.7321196 1.5680084
4.9389639 3.8727674 -0.99395359
21.139814 3.7423213 2.2987032
6.8072133 3.852787 -1.0569397
21.179117 3.750381 3.0576775
11.108958 3.806612 -1.2171378
21.175371 3.7589159 3.8194172
-0.047603473 3.9333749 -0.17334765
-0.047603473 3.9333749 -0.17334765
7.8377829 3.8499434 -0.35847825
21.450937 3.7742419 5.4484534
2.7891548 3.8855011 -0.95172822
-0.047603473 3.9333749 -0.17334765
3.266022 3.8788309 -0.9593181
-0.047603473 3.9333749 -0.17334765
3.9482813 3.8692341 -0.97495276
21.325817 3.6576684 1.5678673
4.9545393 3.8550987 -0.99635637
21.134951 3.6684752 2.2990644
6.7831244 3.8292062 -1.0536053
21.17625 3.6763883 3.0582027
11.108488 3.7676508 -1.2167029
21.17841 3.6848826 3.8209827
-0.047603473 3.9333749 -0.17334765
-0.047603473 3.9333749 -0.17334765
7.8374505 3.8224177 -0.35817093
21.401665 3.6998544 5.4366388
2.8005705 3.8753476 -0.95479184
-0.047603473 3.9333749 -0.17334765
3.2658417 3.8672483 -0.95918858
-0.047603473 3.9333749 -0.17334765
3.9539459 3.8551552 -0.97597635
21.286787 3.5837262 1.5656145
4.9818907 3.8370931 -1.000705
21.137775 3.5945308 2.3003547
6.7986193 3.8050487 -1.0553825
21.188938 3.6021638 3.0611384
11.095936 3.7289095 -1.2151504
21.189051 3.6107035 3.8240309
-0.047603473 3.9333749 -0.17334765
-0.047603473 3.9333749 -0.17334765
7.8250275 3.7951031 -0.35758233
21.377285 3.6254435 5.4314017
2.7810986 3.8658502 -0.94939023
7.9421577 3.7682736 -0.08104641
3.257839 3.8558493 -0.95721328
-0.047603473 3.9333749 -0.17334765
3.9419162 3.8414423 -0.97346056
21.291349 3.5091813 1.5669363
4.9697185 3.8197889 -0.99856102
21.142324 3.5205245 2.3018787
6.8060956 3.7809582 -1.0561363
21.169735 3.5284507 3.0592577
11.047416 3.6910367 -1.2102487
21.191568 3.5365934 3.8256004
-0.047603473 3.9333749 -0.17334765
-0.047603473 3.9333749 -0.17334765
7.8165078 3.7677898 -0.35708755
21.457115 3.5493333 5.4534984
2.7808816 3.8562078 -0.94928199
7.9175553 3.7416637 -0.08101923
3.2692578 3.8442707 -0.9598546
-0.047603473 3.9333749 -0.17334765
3.9318094 3.8281085 -0.97134244
21.311638 3.4360905 1.5695398
4.9693346 3.8026977 -0.9983691
21.15262 3.4481938 2.3040802
6.8135033 3.7574129 -1.0568957
21.177998 3.4560928 3.0615742
11.066472 3.6527557 -1.2116845
21.18012 3.4646165 3.8245602
-0.047603473 3.9333749 -0.17334765
29.048021 3.3027782 6.3655109
7.7999148 3.7414153 -0.35641396
21.443869 3.4765165 5.4512815
2.7690644 3.8469212 -0.94600034
7.9048576 3.7148895 -0.08085385
3.2806361 3.8326137 -0.96249473
-0.047603473 3.9333749 -0.17334765
3.9432185 3.8141987 -0.973548
21.321711 3.363122 1.5713334
4.9807267 3.7852592 -1.000123
21.13685 3.3764665 2.303266
6.7930694 3.7346222 -1.0540799
21.182056 3.3837762 3.0632894
11.065492 3.6149127 -1.2112586
21.168427 3.3927124 3.8235211
-0.047603473 3.9333749 -0.17334765
29.068865 3.2033155 6.3718853
7.8172112 3.714205 -0.35653248
21.453579 3.4032123 5.4551406
2.7919078 3.836283 -0.95223469
7.9040432 3.6871357 -0.080541052
3.2725146 3.8212433 -0.96051913
-0.047603473 3.9333749 -0.17334765
3.9408493 3.800318 -0.97299796
21.325499 3.2883954 1.5726619
4.9486527 3.7687316 -0.99473667
21.14064 3.3024035 2.3047955
6.8002987 3.7104697 -1.0548315
21.17593 3.3098652 3.0635211
11.04445 3.5767431 -1.2089629
21.170185 3.3186352 3.8250949
-0.047603473 3.9333749 -0.17334765
29.054188 3.1021667 6.3703985
7.81041 3.6869392 -0.35608366
21.449448 3.3283432 5.4554787
2.7954366 3.8262107 -0.95318002
7.9191217 3.6588347 -0.08004044
3.2565753 3.8102188 -0.95669949
-0.047603473 3.9333749 -0.17334765
3.9423511 3.7863088 -0.9732334
21.329027 3.2136374 1.573992
4.952023 3.7511327 -0.99518788
21.130274 3.2287719 2.3047009
6.7717595 3.6875515 -1.0509896
21.1735 3.2358625 3.0643568
11.082978 3.5365899 -1.2122407
21.175615 3.2444139 3.8274119
-0.047603473 3.9333749 -0.17334765
29.043053 3.000989 6.3697886
7.7975192 3.6599278 -0.35549554
21.45859 3.2530699 5.4593635
2.7912118 3.8161821 -0.95200747
7.920083 3.6302602 -0.079694532
3.2717011 3.7977455 -0.96025354
-0.047603473 3.9333749 -0.17334765
3.9359531 3.7722552 -0.97189331
21.344173 3.1365345 1.5763233
4.9671483 3.7325974 -0.99757826
21.135458 3.1527712 2.3064868
6.7867284 3.662508 -1.0527538
21.162838 3.1603045 3.0640085
11.021833 3.4990902 -1.2062199
21.184639 3.1681523 3.8304918
-0.047603473 3.9333749 -0.17334765
29.06657 2.89609 6.3771067
7.7865086 3.6322427 -0.35494643
21.448061 3.1765289 5.4582062
2.7830975 3.8063555 -0.94977808
7.9109516 3.6020923 -0.079465732
3.2712257 3.7858541 -0.96011871
-0.047603473 3.9333749 -0.17334765
3.9530151 3.7572107 -0.97526604
21.32917 3.0605361 1.5762122
4.9664302 3.7146399 -0.99737471
21.132431 3.0770478 2.3073452
6.7897139 3.6378689 -1.0529863
21.165735 3.0842624 3.0657732
11.040147 3.458617 -1.2076266
21.169825 3.0927532 3.8291295
-0.047603473 3.9333749 -0.17334765
29.062414 2.792084 6.3782854
7.7933793 3.603878 -0.35481364
21.444992 3.0997562 5.4590764
2.7942269 3.7958999 -0.95283639
7.9097438 3.574317 -0.079150282
3.2784967 3.7738807 -0.96183026
-0.047603473 3.9333749 -0.17334765
3.928901 3.7443478 -0.97039568
21.321943 2.9861398 1.5767331
4.9617252 3.6973078 -0.99652785
21.133184 3.0030026 2.3086493
6.7886753 3.613986 -1.0527151
21.182268 3.0094323 3.0696301
11.038462 3.4198956 -1.2071867
21.170534 3.0186152 3.8307106
-0.047603473 3.9333749 -0.17334765
29.065802 2.6902895 6.3811941
7.8001776 3.5761433 -0.35468739
21.445601 3.0246987 5.4609404
2.7860544 3.7863648 -0.95060974
7.9164271 3.5461593 -0.078739397
3.2662885 3.7628558 -0.95893347
-0.047603473 3.9333749 -0.17334765
3.9399986 3.7298529 -0.97259283
21.316446 2.9116926 1.5774181
4.9569597 3.6800072 -0.99568093
21.119791 2.9296052 2.3083265
6.7875524 3.5901086 -1.0524433
21.172865 2.9356878 3.0695672
11.020729 3.3819759 -1.2052629
21.170982 2.9444666 3.8322933
-0.047603473 3.9333749 -0.17334765
-0.047603473 3.9333749 -0.17334765
7.7988901 3.5487506 -0.35437569
21.409222 2.9513118 5.4531765
2.800962 3.7756047 -0.95472342
7.9050379 3.5188856 -0.078541577
3.2540436 3.7519135 -0.95603734
-0.047603473 3.9333749 -0.17334765
3.9490864 3.7153842 -0.97439647
21.256941 2.8400254 1.5736969
4.9757843 3.6614559 -0.99871963
21.116062 2.8557796 2.3091681
6.7903085 3.5660207 -1.0526807
21.16518 2.8618927 3.0698071
11.018778 3.3433228 -1.2048221
21.180984 2.8698063 3.8357313
-0.047603473 3.9333749 -0.17334765
-0.047603473 3.9333749 -0.17334765
7.7875228 3.5218849 -0.35383347
21.384192 2.8775904 5.4484534
2.7773442 3.7675016 -0.94827646
7.9116035 3.4920788 -0.078144938
3.2767677 3.7395926 -0.96143937
-0.047603473 3.9333749 -0.17334765
3.946413 3.7022307 -0.97385252
21.322798 2.7656219 1.5802193
4.9630637 3.6454639 -0.99658686
21.128151 2.7848039 2.3118312
6.8009682 3.5426548 -1.0539496
21.157438 2.7918429 3.0700052
11.004869 3.3072884 -1.2032914
21.183084 2.7991929 3.8376467
-0.047603473 3.9333749 -0.17334765
-0.047603473 3.9333749 -0.17334765
7.7621651 3.4972429 -0.35298571
21.449919 2.8029933 5.4675145
2.7652118 3.7580986 -0.94499165
-0.047603473 3.9333749 -0.17334765
3.2683144 3.7281635 -0.95946103
-0.047603473 3.9333749 -0.17334765
3.9377618 3.6884062 -0.97211945
21.322392 2.688978 1.5814204
4.9620337 3.6275206 -0.99638158
21.131741 2.7086453 2.3136287
6.7956009 3.5183754 -1.0531597
21.151119 2.7161682 3.0705707
10.994648 3.2682056 -1.2020979
21.182655 2.7231061 3.8392565
-0.047603473 3.9333749 -0.17334765
29.052538 2.2866197 6.3875513
-0.047603473 3.9333749 -0.17334765
21.435856 2.7267542 5.465858
2.7838457 3.7467506 -0.95015687
-0.047603473 3.9333749 -0.17334765
3.2598219 3.7167928 -0.95748305
-0.047603473 3.9333749 -0.17334765
3.9388492 3.6740046 -0.97234815
21.321714 2.612324 1.5826232
4.9412451 3.6108549 -0.99294031
21.135057 2.6324484 2.3154287
6.7861891 3.4943848 -1.0518609
21.154392 2.639924 3.0726478
10.97634 3.2296968 -1.2001638
21.174109 2.6474855 3.8393843
-0.047603473 3.9333749 -0.17334765
29.046202 2.1826644 6.3887429
-0.047603473 3.9333749 -0.17334765
21.444696 2.6492178 5.4702873
2.7793908 3.7376137 -0.94899297
7.8905711 3.4098201 -0.077382885
3.2474639 3.7066128 -0.95459467
-0.047603473 3.9333749 -0.17334765
3.9301698 3.6613064 -0.97062737
21.337044 2.5402131 1.5850723
4.9362402 3.5945654 -0.9921031
21.130535 2.5622671 2.3162348
6.7609773 3.473314 -1.0485475
21.155788 2.5693133 3.0743611
10.973985 3.1931252 -1.1997437
21.177425 2.5767043 3.8416755
-0.047603473 3.9333749 -0.17334765
29.032207 2.0868306 6.3880925
7.777143 3.4141541 -0.35250521
21.440111 2.578074 5.4711041
2.7864506 3.7276666 -0.95099658
7.894774 3.3830891 -0.077007487
3.2506053 3.6953924 -0.95538938
-0.047603473 3.9333749 -0.17334765
3.929275 3.6481023 -0.97047544
21.332241 2.4693499 1.5858877
4.9508681 3.5769019 -0.9945001
21.113888 2.492913 2.3156435
6.7594461 3.4507229 -1.0482876
21.164837 2.4981472 3.0772851
10.955614 3.1576838 -1.1978433
21.196192 2.5048339 3.8469369
-0.047603473 3.9333749 -0.17334765
29.025682 1.9905528 6.3892007
7.7833629 3.3876522 -0.3523891
21.448805 2.5060511 5.4754734
2.7780154 3.7178512 -0.94876534
7.9026723 3.35326 -0.076550603
3.2652688 3.6821115 -0.95893162
-0.047603473 3.9333749 -0.17334765
3.9262795 3.6336594 -0.96991527
-0.047603473 3.9333749 -0.17334765
4.9692435 3.5570912 -0.99752206
21.120255 2.4145737 2.3179357
6.7655807 3.4251699 -1.0490168
21.151415 2.4210539 3.0769708
10.952739 3.1173415 -1.1973784
21.194571 2.4268022 3.8485758
-0.047603473 3.9333749 -0.17334765
28.94998 1.8889692 6.3750434
7.7773294 3.3592455 -0.35196722
21.439341 2.4276786 5.4753656
2.7733922 3.7077868 -0.94758999
7.8984947 3.3242819 -0.076238498
3.2721183 3.6693368 -0.96063167
-0.047603473 3.9333749 -0.17334765
3.9330072 3.6184607 -0.97131455
21.314829 2.3132148 1.587203
4.9324474 3.541476 -0.99149102
21.126329 2.3361654 2.3202307
6.7755742 3.3992548 -1.0502532
21.155455 2.3427052 3.0793791
10.977512 3.0748441 -1.1994996
21.188744 2.3490524 3.8494742
-0.047603473 3.9333749 -0.17334765
28.951756 1.7821357 6.3784671
7.7691998 3.3310287 -0.35149968
21.43152 2.349211 5.4757657
2.7688119 3.6987386 -0.94642615
7.888454 3.2985766 -0.076031446
3.2634945 3.6589572 -0.958664
-0.047603473 3.9333749 -0.17334765
3.9300163 3.605408 -0.97076988
21.32716 2.2410078 1.5894973
4.93115 3.5249481 -0.99129981
21.128746 2.2653909 2.3219757
6.7579799 3.3779061 -1.0479586
21.159798 2.2717013 3.0817044
10.946853 3.0405264 -1.1964903
21.191063 2.2781153 3.8517725
-0.047603473 3.9333749 -0.17334765
-0.047603473 3.9333749 -0.17334765
7.7870965 3.3035064 -0.35165334
21.437513 2.2772202 5.4796338
2.7872663 3.6877196 -0.95159394
7.8902879 3.271935 -0.07567741
3.2509601 3.6489668 -0.95577657
-0.047603473 3.9333749 -0.17334765
3.9406605 3.5911982 -0.97296751
21.313419 2.1708324 1.5896626
4.9179988 3.5094321 -0.98916966
21.111128 2.1962075 2.3213885
6.7442722 3.3563323 -1.0461726
21.165874 2.2004895 3.0843346
10.943871 3.0040541 -1.1960676
21.208813 2.2058711 3.8570449
-0.047603473 3.9333749 -0.17334765
-0.047603473 3.9333749 -0.17334765
7.7929411 3.2768598 -0.35153329
21.368061 2.2112195 5.4637084
2.771008 3.6787031 -0.94725281
7.8957753 3.2421565 -0.075241208
3.2460501 3.6372108 -0.95471621
8.1107206 3.2267783 0.21351853
3.9237843 3.5779645 -0.96966392
21.265041 2.0961928 1.5871263
4.9518328 3.4880662 -0.99477237
21.108477 2.118391 2.3227556
6.7421479 3.331425 -1.0458834
21.149401 2.1236703 3.0837228
10.928531 2.9648049 -1.1944923
21.186514 2.1294017 3.8549764
-0.047603473 3.9333749 -0.17334765
21.213118 2.1361697 4.6366658
7.7865057 3.2484736 -0.35110918
21.22644 2.1442206 5.4290824
2.7777698 3.6676347 -0.94924217
7.9031429 3.2121482 -0.074779078
3.2449746 3.6251242 -0.95457554
-0.047603473 3.9333749 -0.17334765
3.9263933 3.5630302 -0.97027767
21.121111 2.0304499 1.5767097
4.9384079 3.4708221 -0.99262148
21.113451 2.0398622 2.3250582
6.7399316 3.3065255 -1.0455935
21.160213 2.0444925 3.0873508
10.917015 2.9252911 -1.1932859
21.175678 2.0520303 3.8551381
-0.047603473 3.9333749 -0.17334765
21.182871 2.0604291 4.6322918
7.7640376 3.2215774 -0.35032398
21.223366 2.0660532 5.4310036
2.7538602 3.6604967 -0.94280422
7.9007049 3.1857924 -0.074471824
3.2633367 3.6123142 -0.95904553
-0.047603473 3.9333749 -0.17334765
3.8997939 3.5522897 -0.96503389
21.110651 1.960678 1.5771992
4.9408064 3.4538984 -0.99307418
21.116854 1.9688431 2.3270438
6.7378478 3.2840059 -1.045331
21.157652 1.9738878 3.0887752
10.913651 2.8889213 -1.192862
21.165262 1.9821142 3.8552139
-0.047603473 3.9333749 -0.17334765
21.21134 1.9869428 4.6410308
7.7775669 3.1941726 -0.35038233
21.213001 1.9960017 5.4308085
2.7606463 3.6504197 -0.94480479
7.8822551 3.1609936 -0.074362852
3.2506623 3.6024871 -0.95615917
-0.047603473 3.9333749 -0.17334765
3.9317148 3.5358722 -0.97153568
21.115835 1.8894162 1.5790038
4.9077935 3.440469 -0.98771644
21.11211 1.8985357 2.3280966
6.7396379 3.2611008 -1.0455756
21.150919 1.903651 3.0895956
10.918092 2.8517776 -1.1931748
21.166355 1.9111211 3.8575208
-0.047603473 3.9333749 -0.17334765
21.20459 1.9165592 4.6418529
7.7810488 3.1676416 -0.35021418
21.210102 1.9252651 5.4326463
2.7749972 3.6387548 -0.94890487
7.8913755 3.1314237 -0.073881418
3.2494886 3.5906715 -0.95602089
-0.047603473 3.9333749 -0.17334765
3.9244459 3.5222261 -0.97019476
21.136082 1.8109684 1.58219
4.9335184 3.4198914 -0.99202663
21.104595 1.8228993 2.3289816
6.7411695 3.2363975 -1.0457985
21.15913 1.8263285 3.092906
10.854756 2.8186069 -1.1871884
21.168602 1.834357 3.8602669
-0.047603473 3.9333749 -0.17334765
21.204813 1.8398778 4.6445017
7.7862234 3.1388266 -0.35006598
21.210264 1.8485909 5.4355669
2.7701197 3.6290557 -0.94773215
7.8944182 3.1024036 -0.073473528
3.2366602 3.5801096 -0.95312542
-0.047603473 3.9333749 -0.17334765
3.9171307 3.5086272 -0.96885413
21.128284 1.7352326 1.5830779
4.9238315 3.4028935 -0.99052715
21.100763 1.7468841 2.3303354
6.750505 3.2108369 -1.0470349
21.149359 1.7507463 3.0934911
10.890348 2.7753932 -1.190414
21.168615 1.7577531 3.862643
-0.047603473 3.9333749 -0.17334765
21.204763 1.7631707 4.6471529
7.7714062 3.1120543 -0.34946871
21.21784 1.7711091 5.4405208
2.7614007 3.6200619 -0.94550812
7.9033952 3.073401 -0.072997518
3.2431757 3.5677724 -0.95482832
-0.047603473 3.9333749 -0.17334765
3.892261 3.4973636 -0.96399689
21.120415 1.6613741 1.5839453
4.9416008 3.3833647 -0.99354845
21.104752 1.6718707 2.3326054
6.7361426 3.1883945 -1.0452353
21.143452 1.6766369 3.0946622
10.870441 2.7389345 -1.188493
21.174416 1.6823516 3.8661149
-0.047603473 3.9333749 -0.17334765
21.18523 1.6903405 4.6453805
7.7824135 3.0832543 -0.3494612
21.215717 1.6964133 5.4429154
2.7641532 3.6098018 -0.9464466
7.8943791 3.0463228 -0.072746627
3.2457774 3.5558286 -0.95561171
-0.047603473 3.9333749 -0.17334765
3.9102333 3.4813726 -0.96774632
21.096439 1.5893004 1.583497
4.9396825 3.3659368 -0.99334341
21.104532 1.5972383 2.3344097
6.7059369 3.1678314 -1.0414093
21.160862 1.5999477 3.0994732
10.866245 2.7008133 -1.1880445
21.177994 1.6070971 3.8692176
-0.047603473 3.9333749 -0.17334765
21.200357 1.6138086 4.6515355
7.7833791 3.0554812 -0.34922892
21.207563 1.6223326 5.4437871
2.747709 3.6017911 -0.94211543
-0.047603473 3.9333749 -0.17334765
3.2367377 3.5452328 -0.95363903
-0.047603473 3.9333749 -0.17334765
3.9125581 3.4670851 -0.96836537
21.107864 1.5132859 1.5860133
4.9141779 3.351275 -0.98926955
21.107992 1.5221274 2.3366838
6.7308445 3.1410203 -1.0446774
21.142643 1.5271218 3.0988283
10.854003 2.6636267 -1.1868596
21.169588 1.5331125 3.8700898
-0.047603473 3.9333749 -0.17334765
21.207457 1.5380147 4.6559319
7.7623978 3.0302167 -0.34850585
21.20492 1.5476308 5.4461846
2.7657158 3.5896802 -0.94726843
-0.047603473 3.9333749 -0.17334765
3.2276638 3.5346954 -0.95166671
-0.047603473 3.9333749 -0.17334765
3.9187257 3.4523036 -0.96976596
21.111095 1.4380965 1.5878732
4.9043088 3.3348897 -0.98777574
21.09935 1.4483545 2.3375549
6.708375 3.119719 -1.0418656
21.171293 1.4488759 3.1054652
10.873272 2.622714 -1.188616
21.172636 1.4577909 3.8731964
-0.047603473 3.9333749 -0.17334765
21.183275 1.4657464 4.6532822
7.798914 2.9982259 -0.34907323
21.213537 1.4715841 5.4516344
2.7760148 3.578402 -0.95031255
-0.047603473 3.9333749 -0.17334765
3.2417345 3.5213134 -0.95520413
-0.047603473 3.9333749 -0.17334765
3.9248385 3.4374735 -0.97116554
21.106148 1.3638165 1.589076
4.878716 3.3205159 -0.98370457
21.106226 1.3727028 2.3403018
6.725215 3.0936835 -1.0441179
21.144703 1.3770299 3.1036091
10.852859 2.5865357 -1.1866949
21.132492 1.387578 3.8681147
-0.047603473 3.9333749 -0.17334765
21.131733 1.3968644 4.644464
7.7837009 2.9723017 -0.34848297
21.12009 1.4075937 5.4301391
2.7709618 3.5690267 -0.94914222
7.8970785 2.9335411 -0.071233138
3.2403061 3.5098181 -0.95506787
-0.047603473 3.9333749 -0.17334765
3.9036596 3.4260917 -0.96709287
21.000069 1.3021505 1.5818689
4.9431477 3.2947896 -0.99445295
20.968946 1.3148992 2.3259408
6.6711097 3.0765553 -1.0372583
21.00016 1.3199534 3.0835392
10.836276 2.5499821 -1.1851418
21.010212 1.3277495 3.8473928
-0.047603473 3.9333749 -0.17334765
21.045116 1.3326085 4.6277103
7.8080783 2.9414625 -0.3487792
21.07637 1.3380919 5.4218597
2.7544022 3.5612071 -0.94481248
7.9173369 2.9027405 -0.070596933
3.2465575 3.4973063 -0.95676732
-0.047603473 3.9333749 -0.17334765
3.8980062 3.4127998 -0.96614742
21.032204 1.2234051 1.5862057
4.9174361 3.2804451 -0.99038148
21.058088 1.2289932 2.3385346
6.6720452 3.0525761 -1.0374856
21.086872 1.2343059 3.0992889
10.819571 2.5135288 -1.1835892
21.158728 1.2342575 3.878432
-0.047603473 3.9333749 -0.17334765
21.175068 1.2414331 4.6603198
7.7649183 2.9191947 -0.34756929
21.189781 1.2489753 5.4552841
2.7454684 3.5524552 -0.94258988
7.8958435 2.8773193 -0.070497341
3.2334719 3.4873672 -0.95387709
-0.047603473 3.9333749 -0.17334765
3.8942521 3.3992772 -0.96559286
21.113445 1.1378717 1.5946751
4.9073334 3.2641578 -0.98888731
21.101591 1.1483922 2.3457432
6.7082877 3.0238135 -1.0422641
21.169315 1.148531 3.1144407
10.854065 2.4702859 -1.1868076
21.150967 1.160085 3.8796837
-0.047603473 3.9333749 -0.17334765
21.176962 1.1659622 4.6638446
7.789084 2.8882265 -0.34786281
21.210751 1.1709952 5.4643025
2.7517955 3.5416226 -0.9445793
7.8940878 2.8493326 -0.070141256
3.2242134 3.4769769 -0.95190531
-0.047603473 3.9333749 -0.17334765
3.9040515 3.3838842 -0.96777213
21.123241 1.0613894 1.5972064
4.9049993 3.24685 -0.98868102
21.083771 1.0757115 2.3456833
6.7011752 3.0007634 -1.0414773
21.153461 1.0753582 3.1144109
10.825255 2.4354844 -1.1841531
21.160477 1.0835829 3.8842905
-0.047603473 3.9333749 -0.17334765
21.178585 1.0904493 4.6673717
7.7972817 2.8592496 -0.34780121
21.200764 1.0969355 5.4651852
2.7581491 3.5312316 -0.94657379
7.9142118 2.8196826 -0.069517016
3.2381277 3.4639118 -0.95544529
-0.047603473 3.9333749 -0.17334765
3.9022369 3.3707678 -0.96761554
21.109592 0.99178958 1.5977135
4.9144516 3.2287498 -0.99041551
21.105566 1.0013461 2.3502746
6.6627188 2.9833784 -1.0366609
21.145708 1.0048697 3.1155529
10.78477 2.404429 -1.1804223
21.154654 1.0128214 3.8858745
-0.047603473 3.9333749 -0.17334765
21.176596 1.0191185 4.6699748
7.8174443 2.8299055 -0.34801835
21.227442 1.021626 5.4756927
2.7453041 3.5231068 -0.94329876
7.9379878 2.7879262 -0.068821982
3.2249424 3.4541218 -0.95255619
-0.047603473 3.9333749 -0.17334765
3.8866932 3.3589513 -0.96471757
21.118858 0.91518569 1.6002493
4.9237142 3.2097111 -0.99213856
21.099039 0.92702579 2.3516264
6.6515417 2.9610839 -1.0353701
21.14893 0.92904329 3.1185644
10.783349 2.3660369 -1.1803367
21.155849 0.93727279 3.8889949
7.9584007 2.7782321 -0.63371706
21.158381 0.94624758 4.669095
7.8135524 2.8024564 -0.34769005
21.213104 0.9480443 5.4755616
2.7477009 3.5127702 -0.94423419
7.9735079 2.7542453 -0.067968227
3.2348309 3.4409528 -0.95517045
-0.047603473 3.9333749 -0.17334765
3.9002142 3.3428843 -0.96767557
21.104177 0.84193897 1.6008029
4.893856 3.1964223 -0.98742753
21.127626 0.84756041 2.3572075
6.6638398 2.9353542 -1.0371102
21.157745 0.85230589 3.1224902
10.781791 2.3276362 -1.1802497
21.156773 0.86167932 3.8921173
-0.047603473 3.9333749 -0.17334765
21.174669 0.86844897 4.6761575
-0.047603473 3.9333749 -0.17334765
21.215734 0.87204623 5.4800119
2.7462456 3.5029998 -0.94411689
8.0405302 2.7155397 -0.066693515
3.2138803 3.4324377 -0.9504481
-0.047603473 3.9333749 -0.17334765
3.8865261 3.3308735 -0.96516842
21.142471 0.76079226 1.6058261
4.8873816 3.1797581 -0.98657715
21.100914 0.77607203 2.356214
6.6721168 2.9101248 -1.0383437
21.135006 0.78012896 3.1215529
8.8110657 2.5882192 -0.99707162
21.26627 0.76989055 3.9161255
-0.047603473 3.9333749 -0.17334765
-0.047603473 3.9333749 -0.17334765
7.9517856 2.7255092 -0.35026798
21.394131 0.77002478 5.5312991
2.7447565 3.4932342 -0.94399947
-0.047603473 3.9333749 -0.17334765
3.2159884 3.4204354 -0.95122778
-0.047603473 3.9333749 -0.17334765
3.8921816 3.3159137 -0.96656382
21.347916 0.65366817 1.6249294
4.8574491 3.1667876 -0.98186922
21.107338 0.69962788 2.3592165
6.6685376 2.8866582 -1.0380616
21.156965 0.7012198 3.1276126
8.7551813 2.5652418 -0.99194145
21.286022 0.69087982 3.9229872
-0.047603473 3.9333749 -0.17334765
21.393465 0.68405223 4.7331023
-0.047603473 3.9333749 -0.17334765
21.43055 0.68810225 5.5449266
2.7508528 3.4822454 -0.94598573
-0.047603473 3.9333749 -0.17334765
3.2103641 3.4096487 -0.9501738
-0.047603473 3.9333749 -0.17334765
3.8958435 3.3012176 -0.96756822
21.367769 0.5741055 1.6284792
4.9132524 3.1403055 -0.9913047
21.095821 0.62586284 2.3601053
6.6531215 2.865078 -1.0362651
21.143471 0.62760234 3.1281986
8.4435472 2.5832939 -0.96303487
21.278297 0.61592031 3.924629
-0.047603473 3.9333749 -0.17334765
21.389513 0.60814357 4.7357683
-0.047603473 3.9333749 -0.17334765
21.439896 0.61002564 5.5514297
2.7416754 3.4737194 -0.94376415
-0.047603473 3.9333749 -0.17334765
3.2239149 3.3957384 -0.95370215
21.269367 0.50415111 0.86527973
3.8839653 3.2890267 -0.96545196
21.387333 0.4943676 1.6320326
4.8793149 3.128073 -0.98595446
21.109549 0.54806137 2.3640525
6.6493859 2.8416786 -1.0359826
21.131678 0.55373096 3.1290903
8.399498 2.5600405 -0.95902026
21.289715 0.53788996 3.9300039
-0.047603473 3.9333749 -0.17334765
21.393002 0.53100181 4.7402015
-0.047603473 3.9333749 -0.17334765
21.433678 0.5342648 5.5538611
2.7477355 3.4629326 -0.94575244
-0.047603473 3.9333749 -0.17334765
3.2182558 3.3852363 -0.95265108
21.281187 0.42776012 0.86731046
3.8991921 3.2727196 -0.96879941
21.343969 0.42663789 1.6302607
4.8882585 3.1093433 -0.98767906
21.121328 0.47228765 2.3677456
6.6652346 2.8156171 -1.0382284
21.141388 0.47824383 3.1333096
8.3830156 2.5332432 -0.95757598
21.281763 0.46475053 3.9316275
-0.047603473 3.9333749 -0.17334765
21.40807 0.45378733 4.7472649
-0.047603473 3.9333749 -0.17334765
21.425583 0.46068287 5.5557623
2.7537546 3.4520996 -0.9477399
-0.047603473 3.9333749 -0.17334765
3.2317517 3.371479 -0.95618081
21.275007 0.35422754 0.868478
3.8756812 3.2629106 -0.96434814
21.343637 0.35192513 1.6321373
4.8737807 3.0945244 -0.98554844
21.103458 0.40130377 2.3679116
6.6614246 2.7927616 -1.0379515
21.127432 0.40655136 3.1338778
8.3939409 2.5018816 -0.95868987
21.258051 0.3942039 3.9302657
-0.047603473 3.9333749 -0.17334765
21.415161 0.3777082 4.752564
-0.047603473 3.9333749 -0.17334765
21.434414 0.3842814 5.5622497
2.7520876 3.4423077 -0.94762105
8.1238441 2.5288851 -0.063179798
3.2106235 3.3633738 -0.95146191
21.276125 0.27748203 0.87005502
3.8849421 3.2471802 -0.96652049
21.35844 0.27261567 1.6353667
4.8552957 3.0800416 -0.98277134
21.112434 0.32387829 2.3713963
6.6300683 2.7740831 -1.0341394
21.144096 0.32775879 3.1393425
8.3967724 2.4710488 -0.95906252
21.291903 0.3120563 3.9401286
7.9234099 2.5564709 -0.63104296
21.423586 0.29933929 4.7583308
-0.047603473 3.9333749 -0.17334765
21.438837 0.30654597 5.5677438
2.7465875 3.4332023 -0.94645095
8.1346445 2.4976103 -0.062619954
3.2048109 3.3526728 -0.95040768
21.263195 0.20310068 0.87095934
3.8748288 3.2348175 -0.9647947
21.357241 0.19590688 1.6372707
4.8678675 3.0601547 -0.98513097
21.095697 0.25078201 2.3718221
6.6455507 2.7473028 -1.036375
21.133204 0.25354838 3.1405454
8.3838024 2.4429541 -0.95797414
21.306076 0.23298931 3.9462612
-0.047603473 3.9333749 -0.17334765
21.424034 0.22220111 4.7623334
-0.047603473 3.9333749 -0.17334765
21.448696 0.22775507 5.574769
2.7334211 3.4252729 -0.94317621
8.2003164 2.4556525 -0.061300889
3.2180662 3.3382311 -0.95392835
21.265402 0.12409353 0.87265927
3.8491747 3.2249818 -0.95994842
21.320116 0.12358975 1.6362085
4.8608594 3.0432611 -0.98427492
21.086197 0.17452288 2.3732138
6.6608229 2.7198138 -1.0386014
21.129501 0.17614102 3.1429911
8.3980474 2.4092448 -0.95943081
21.31962 0.15191388 3.95242
-0.047603473 3.9333749 -0.17334765
-0.047603473 3.9333749 -0.17334765
-0.047603473 3.9333749 -0.17334765
21.322697 0.17078495 5.5456309
2.7278218 3.4160168 -0.94200385
21.150965 0.057052374 0.11574411
3.2197752 3.3258224 -0.95470119
21.19264 0.058645248 0.87069124
3.8775079 3.2053032 -0.96601045
21.345495 0.040070057 1.6404655
4.857676 3.0256882 -0.98406053
21.095963 0.094736099 2.3769639
6.6564727 2.6958022 -1.0383084
21.137186 0.096598864 3.1472676
8.3925714 2.3790216 -0.95906204
21.301928 0.076282978 3.9526045
-0.047603473 3.9333749 -0.17334765
-0.047603473 3.9333749 -0.17334765
-0.047603473 3.9333749 -0.17334765
21.373592 0.082845688 5.5638952
2.7260287 3.4063163 -0.94188523
21.158918 -0.020941257 0.11694425
3.2023621 3.3173056 -0.95090032
21.198586 -0.019099236 0.87256366
3.8769007 3.191226 -0.96623218
21.253323 -0.019989491 1.6347241
4.8467498 3.0100188 -0.98256809
21.084288 0.020653486 2.3781006
6.6209483 2.6782632 -1.0339959
21.131313 0.021314144 3.1493905
10.665619 1.9217136 -1.1708515
21.315226 -0.0031075478 3.9587467
19.157242 0.33560276 -1.2755742
21.413424 -0.011482 4.7721891
21.026541 -0.0054137707 -0.63324374
21.42067 -0.0029363632 5.5811229
2.7242019 3.3966217 -0.9417665
-0.047603473 3.9333749 -0.17334765
3.1925752 3.3074262 -0.94893098
21.278826 -0.11107635 0.87811607
3.8666117 3.1790004 -0.96450686
21.325489 -0.11057901 1.6429565
4.8357735 2.9944148 -0.98107606
21.072355 -0.05339551 2.3792388
6.6282506 2.6527333 -1.0352201
21.132938 -0.055439949 3.1527345
10.670306 1.8820646 -1.1714864
21.343676 -0.085540771 3.9678824
19.087727 0.27942991 -1.2714889
21.39933 -0.086258888 4.7731047
21.032324 -0.082699299 -0.63277119
21.429388 -0.081986904 5.5881586
2.7337484 3.3849359 -0.94480163
28.900137 -1.6711726 0.22587952
3.1904559 3.2963867 -0.9487955
21.260979 -0.18284988 0.87881213
3.8679023 3.1649117 -0.96512192
21.303707 -0.1817441 1.6431818
4.8597035 2.9724736 -0.98536021
21.072222 -0.12781858 2.3817711
6.59273 2.636091 -1.0309174
21.134647 -0.13040686 3.1560588
10.682851 1.8417704 -1.1728598
21.358664 -0.16376877 3.9743831
19.075222 0.21430802 -1.2706902
21.38151 -0.15838718 4.7731142
21.030329 -0.15670919 -0.63214767
21.422979 -0.1563797 5.591094
2.731895 3.3754578 -0.94468516
28.480629 -1.6907344 0.22154918
3.195935 3.2838259 -0.95048958
21.262489 -0.25840282 0.88047844
3.8575995 3.1531124 -0.9634012
21.303202 -0.2570281 1.6452403
4.8293309 2.9611657 -0.98066783
21.081573 -0.20419264 2.3854859
6.5960937 2.6119347 -1.0316453
21.11087 -0.2005024 3.1554177
10.675709 1.8052454 -1.1724108
21.371441 -0.24176693 3.9805124
19.070333 0.14767933 -1.27034
28.755743 -1.6680226 6.4809241
21.020231 -0.22919893 -0.63135159
27.098387 -1.3331347 7.1208096
2.7224462 3.3675308 -0.94246846
28.475031 -1.7905331 0.22293466
3.2013662 3.2712197 -0.95218283
21.263729 -0.33401489 0.88214666
3.8338041 3.1441107 -0.95895725
21.288748 -0.32962561 1.6461341
4.8415027 2.9414172 -0.98302668
21.094538 -0.28145647 2.3896761
6.6032577 2.5869529 -1.0328746
21.125631 -0.27819824 3.1608822
10.660632 1.7703216 -1.1712337
22.91021 -0.62280655 4.2829065
19.08087 0.077883005 -1.2708867
28.757309 -1.7700396 6.4869952
21.013802 -0.30245781 -0.63063926
27.038296 -1.4170885 7.1107202
2.7129755 3.3596621 -0.94025236
-0.047603473 3.9333749 -0.17334765
3.2029364 3.2593598 -0.95296085
21.284277 -0.41367388 0.88478833
3.8388097 3.1293001 -0.96035022
21.301394 -0.40773344 1.6493633
4.8419952 2.9239693 -0.98346192
21.097494 -0.3568821 2.392688
6.5908971 2.5659103 -1.0315903
21.13236 -0.35447359 3.1651285
10.657149 1.7330692 -1.1711479
22.896332 -0.7012043 4.2842426
19.095066 0.0071685314 -1.2716551
28.768076 -1.8740602 6.4952817
21.011036 -0.37652397 -0.63001037
27.017759 -1.5087008 7.1113448
2.7109356 3.3497727 -0.94013017
-0.047603473 3.9333749 -0.17334765
